ply
format ascii 1.0
element vertex 1254
property float x
property float y
property float z
property uchar red
property uchar green
property uchar blue
end_header
-0.695764 -0.914929 8.374368 100 92 87
-0.923412 -1.502880 7.800463 20 10 3
-0.589806 -0.523999 8.710891 91 76 53
-0.731896 -0.581942 8.502583 36 26 16
-0.572950 -0.556336 8.751460 96 80 55
-0.619238 -0.599745 8.714822 93 85 72
-0.641396 -0.638978 8.704115 97 84 65
-0.641396 -0.638978 8.704115 97 84 65
-0.581144 -0.608411 8.842654 118 104 87
-0.744306 -0.988624 8.473167 115 103 84
-0.646352 -0.623342 8.786182 112 99 82
-0.350440 -0.284361 9.344619 124 113 104
-0.764725 -0.988483 8.479104 10 124 105
-0.247141 -0.324161 9.482357 106 90 63
-0.606011 -0.355891 8.997030 122 105 105
-0.606011 -0.355891 8.997030 122 105 105
-0.831949 -0.797526 8.500076 107 108 112
-0.650825 -0.492202 8.881183 7 118 120
-0.873990 -0.794022 8.454580 76 78 83
-0.822166 -0.912796 8.472799 49 50 50
-0.788298 -0.845473 8.553405 59 61 66
-1.171611 -1.785736 7.621959 22 8 125
-1.155884 -1.774116 7.653436 100 80 67
-1.155884 -1.774116 7.653436 100 80 67
-1.222109 -1.833865 7.601348 22 14 12
-0.667451 -0.671205 8.866220 108 98 86
-0.655411 -0.551294 8.939225 22 125 122
-0.581422 -0.239080 9.211414 43 34 28
-0.942812 -1.215497 8.303658 87 79 70
-0.958856 -1.228697 8.285914 38 27 15
-0.881615 -0.857753 8.554818 98 101 110
-0.864337 -0.837227 8.589268 98 101 110
-0.826521 -1.076846 8.532784 95 84 72
-0.903083 -0.759443 8.584716 29 27 24
-0.534261 -0.249252 9.302948 9 125 115
-0.872125 -1.062292 8.493655 87 77 65
-0.682566 -0.653346 8.946964 44 31 11
-0.915123 -0.952773 8.527462 61 63 68
-0.505375 -0.318305 9.378844 55 43 36
-1.067435 -1.320802 8.203742 104 99 92
-1.062050 -1.301328 8.228506 45 40 33
-0.996419 -1.238480 8.342528 101 97 87
-1.120841 -1.377800 8.121401 35 30 24
-0.665242 -0.510689 9.104771 25 121 95
-0.971206 -1.164258 8.416975 97 94 86
-1.193565 -1.457198 8.006884 34 30 26
-1.268763 -1.618645 7.839191 80 60 42
-0.661199 -0.460895 9.141821 77 50 23
-0.378283 -0.376694 9.551383 15 0 105
-0.864457 -1.065986 8.609097 32 17 2
-0.791730 -0.575428 8.931575 55 40 21
-0.718792 -0.551626 9.046831 24 125 101
-0.718792 -0.551626 9.046831 24 125 101
-0.760546 -0.426510 9.064839 100 79 54
-0.760546 -0.426510 9.064839 100 79 54
-0.675247 -0.643799 9.077790 93 78 58
-0.970147 -0.984901 8.553389 104 97 92
-1.227458 -1.492977 8.005930 33 27 23
-0.820425 -0.610530 8.942571 40 25 12
-0.941087 -0.888835 8.683610 4 124 118
-1.088372 -1.294634 8.333030 32 27 21
-0.914752 -1.076642 8.657070 124 106 88
-0.957071 -0.883594 8.698264 85 85 86
-0.939227 -0.567217 8.867259 32 9 119
-0.978178 -0.925645 8.657094 95 90 86
-0.975560 -0.653315 8.793397 99 73 49
-0.703750 -0.334436 9.286148 57 47 29
-1.164009 -1.369180 8.245383 37 32 24
-0.981420 -0.783262 8.746682 115 113 112
-0.931682 -0.813227 8.799331 115 113 112
-1.275648 -1.507238 8.062763 86 83 78
-0.989300 -1.168527 8.576965 106 99 91
-0.401326 -0.423868 9.679834 108 94 65
-0.981142 -1.148879 8.642667 95 86 74
-0.981142 -1.148879 8.642667 95 86 74
-0.328027 -0.410440 9.812392 117 101 67
-0.998566 -0.699451 8.850608 9 113 111
-1.013243 -1.156700 8.644653 103 94 82
-1.013242 -1.156700 8.644653 103 94 82
-0.791068 -0.381675 9.275883 63 47 41
-0.999792 -1.048981 8.729954 58 48 44
-0.621411 -0.349535 9.528898 9 2 112
-0.800101 -0.364555 9.307632 21 7 0
-1.089514 -1.212545 8.569377 100 93 84
-1.107945 -1.233442 8.551663 98 90 81
-0.991817 -0.519392 9.037307 39 40 43
-0.991817 -0.519392 9.037307 39 40 43
-0.441022 -0.455209 9.743535 27 18 122
-1.009554 -0.492972 9.035842 103 104 106
-1.285153 -1.401136 8.290006 36 32 25
-0.999677 -0.505067 9.100662 107 109 108
-1.025391 -0.676209 8.994225 89 90 100
-1.042014 -0.617676 9.011312 121 121 120
-1.379955 -1.523198 8.201739 26 19 14
-1.239108 -1.395080 8.428508 46 41 36
-1.057655 -0.847310 8.897423 112 89 84
-0.425009 -0.485226 9.824467 23 13 114
-0.955628 -0.408492 9.233829 55 39 32
-0.943213 -0.412624 9.264858 122 110 104
-1.089632 -1.204738 8.729349 110 107 103
-0.386766 -0.487476 9.910536 95 80 48
-1.104288 -1.226327 8.753745 42 27 13
-1.111855 -1.066981 8.831705 81 64 67
-1.292845 -1.374207 8.509211 86 76 66
-1.090288 -0.591699 9.133853 59 52 51
-0.846370 -0.449152 9.485501 63 42 42
-1.074798 -0.599193 9.168429 95 92 91
-1.308582 -1.442233 8.515047 28 19 9
-1.113962 -0.848146 9.021222 47 19 4
-1.174628 -1.046451 8.890961 2 5 13
-1.048389 -0.482700 9.301841 76 61 44
-0.962093 -0.495749 9.395256 7 120 112
-1.015867 -0.470598 9.369078 50 35 30
-1.216647 -1.162891 8.828631 11 13 23
-1.275434 -1.453367 8.628219 88 80 71
-1.133626 -0.666343 9.169365 102 104 111
-0.554716 -0.545691 9.890009 30 19 122
-1.171530 -0.799052 9.076093 92 72 71
-0.540177 -0.558490 9.922472 86 76 48
-1.205356 -1.392567 8.792329 53 45 36
-1.168908 -0.654827 9.197817 12 11 13
-1.269058 -1.155573 8.856184 50 51 55
-1.243728 -1.119796 8.901890 34 37 44
-1.065303 -0.508665 9.387367 59 40 34
-1.141850 -0.616626 9.264521 65 60 61
-1.160324 -0.645936 9.244452 63 64 69
-1.057674 -0.510397 9.441868 59 43 36
-1.057674 -0.510397 9.441868 59 43 36
-1.258250 -1.426989 8.817856 89 79 66
-1.137380 -0.552475 9.380596 94 74 50
-1.171615 -0.704911 9.274869 97 104 111
-1.346121 -1.473571 8.723381 31 20 10
-1.192878 -0.657908 9.292063 96 100 111
-1.293258 -1.237377 8.914455 111 114 120
-1.209031 -0.706702 9.264101 117 120 1
-1.235032 -0.667831 9.270507 84 83 93
-1.334426 -1.487923 8.788987 97 94 88
-1.500019 -1.531599 8.597597 80 74 69
-1.224376 -0.698464 9.291114 61 63 66
-0.648197 -0.584560 9.986578 9 127 102
-1.173832 -0.543020 9.436078 96 71 49
-1.136822 -0.523621 9.487668 117 103 90
-1.243838 -0.721631 9.288233 79 75 72
-1.243838 -0.721631 9.288233 79 75 72
-1.243838 -0.721631 9.288233 79 75 72
-1.240551 -0.775080 9.267764 63 54 49
-1.292520 -1.108836 9.060781 57 37 41
-1.285122 -0.912475 9.173060 75 46 25
-1.143159 -0.534523 9.509598 57 41 26
-1.143159 -0.534523 9.509598 57 41 26
-0.558050 -0.562377 10.129671 102 84 50
-1.324632 -1.204454 9.008622 88 72 79
-0.687875 -0.602961 9.988872 59 49 18
-0.648775 -0.597813 10.043241 10 0 105
-1.174926 -0.588170 9.484071 117 92 74
-1.174926 -0.588170 9.484071 117 92 74
-1.256250 -0.769861 9.349567 95 93 97
-1.050093 -0.552123 9.685057 97 90 84
-1.275884 -0.851323 9.306441 49 31 22
-1.302846 -1.390771 9.023013 109 104 102
-1.135322 -0.549810 9.598397 113 97 87
-0.636601 -0.593780 10.109539 75 62 36
-1.681794 -1.587646 8.558640 29 24 18
-1.681794 -1.587646 8.558640 29 24 18
-1.156817 -0.552773 9.597252 62 41 34
-1.642934 -1.545389 8.630493 96 89 81
-1.179922 -0.608942 9.562208 46 26 17
-1.179922 -0.608942 9.562208 46 26 17
-1.001319 -0.553812 9.787778 56 48 35
-1.213486 -0.626019 9.531938 57 38 25
-1.355116 -0.862398 9.294755 12 115 104
-1.274430 -1.280761 9.187414 35 16 126
-1.310190 -1.375387 9.111746 94 84 76
-1.641157 -1.548547 8.695256 90 85 79
-0.813936 -0.624046 9.994299 105 96 71
-1.274839 -0.662231 9.503215 91 71 54
-0.700146 -0.644244 10.112293 111 105 88
-1.155531 -0.574745 9.679278 8 124 117
-0.862022 -0.623298 9.969839 112 102 83
-1.238635 -0.655383 9.580283 67 49 37
-1.288770 -0.688360 9.525144 22 3 121
-1.239152 -0.608983 9.613940 106 90 81
-1.282872 -0.664680 9.542874 123 105 93
-1.345859 -0.741525 9.447073 90 71 53
-1.374990 -0.796368 9.422030 91 70 42
-0.804503 -0.644195 10.078889 50 41 22
-1.350517 -0.767067 9.465901 126 109 94
-0.737522 -0.621315 10.181868 101 87 63
-1.369163 -0.775490 9.482797 32 16 127
-1.285319 -0.671025 9.617177 1 108 101
-1.331692 -0.667484 9.589300 121 106 95
-1.178526 -0.590167 9.817776 116 106 101
-1.456928 -1.014882 9.345967 32 3 106
-1.394326 -0.834790 9.497341 85 61 38
-1.391443 -0.723223 9.555230 76 54 36
-1.315899 -0.646615 9.667691 42 24 18
-1.404690 -0.804908 9.507876 85 60 37
-1.429733 -0.804950 9.496287 52 28 6
-1.534025 -0.988321 9.305903 58 30 6
-1.470806 -0.935141 9.395620 82 58 49
-1.503339 -1.402798 9.162480 68 60 51
-1.437304 -0.747599 9.541483 94 72 53
-1.458643 -0.828707 9.488583 75 50 31
-1.326923 -0.653596 9.715323 0 107 102
-1.479662 -0.929570 9.438522 90 66 55
-0.850033 -0.656257 10.197859 98 89 70
-0.824462 -0.565813 10.273451 106 87 49
-1.444156 -0.819456 9.545057 100 78 71
-1.518792 -1.213902 9.286058 79 63 73
-0.916188 -0.553645 10.201245 89 70 30
-1.403769 -0.724591 9.644120 120 103 97
-1.498182 -0.932440 9.456402 105 81 74
-1.371849 -0.647172 9.716589 43 22 17
-1.489439 -1.394092 9.245044 92 88 83
-1.520998 -1.166420 9.331430 104 79 76
-1.520998 -1.166420 9.331430 104 79 76
-1.755821 -1.503993 8.945401 88 83 78
-1.518483 -0.995879 9.425318 102 78 73
-1.504628 -0.848405 9.514378 105 107 110
-1.438893 -0.695229 9.651882 104 102 100
-1.522058 -0.938183 9.484472 53 42 39
-0.917164 -0.639150 10.254707 22 10 108
-1.425834 -0.578411 9.805027 110 104 95
-0.950642 -0.672028 10.221829 58 43 11
-1.664692 -1.407765 9.204283 38 25 13
-0.983752 -0.637391 10.235938 27 12 109
-0.983752 -0.637391 10.235938 27 12 109
-1.084408 -0.664448 10.149425 107 98 75
-1.689734 -1.379477 9.256791 43 33 20
-1.288490 -0.614727 10.036619 6 123 98
-1.093451 -0.616787 10.223380 28 13 111
-1.209665 -0.608941 10.140267 49 33 0
-1.264915 -0.613594 10.091646 47 37 12
-0.077772 0.318297 7.385264 24 20 18
-1.155978 -1.794202 7.698153 80 70 63
-1.381094 -1.678995 7.811506 63 61 59
-1.406212 -1.667066 7.789318 46 44 41
-1.408391 -1.684086 7.831592 63 62 59
-0.412395 -1.033076 8.564007 110 87 62
-1.188339 -1.791889 7.660994 60 46 36
-1.188340 -1.791889 7.660994 60 46 36
-1.288584 -0.761586 8.773402 77 49 24
-1.288584 -0.761586 8.773402 77 49 24
-1.375338 -0.897667 8.787102 50 22 12
-2.205624 -0.419170 9.015538 94 88 90
-0.059683 -0.143672 7.922304 57 36 30
-0.123760 -0.038961 8.074607 62 44 35
-0.525103 -1.351563 7.233718 0 0 0
-0.381573 -1.024472 8.278581 43 21 21
-0.678588 -1.413744 7.610610 94 83 71
-0.727726 -1.425605 7.663915 95 91 88
-0.898025 -1.606881 7.757069 49 48 46
-0.568503 -0.069243 9.164803 101 85 55
-0.574945 -0.127074 9.216630 40 25 7
-1.113017 -1.775216 7.864183 96 76 59
-1.190480 -1.737423 7.998088 35 34 35
-0.921652 -1.206711 8.804193 37 25 10
-1.216631 -1.449089 8.712346 100 95 88
-1.527015 -0.296264 8.927861 107 112 114
-1.556871 -0.384144 8.869616 115 117 121
-1.689271 -0.239686 8.946441 94 75 54
-1.970613 -0.428810 8.961167 127 110 92
0.145865 0.635232 7.376130 84 63 57
0.133367 0.505024 7.410170 19 118 90
0.147558 0.219218 7.366844 99 77 56
0.496836 0.520211 8.167792 118 106 85
0.385493 0.435206 8.468311 49 30 118
-0.003964 -0.253462 7.868503 60 43 38
-0.231924 -1.106612 7.548108 77 68 59
-0.167245 -0.026040 8.140389 80 50 48
-0.208420 -0.334847 8.103512 94 66 47
-0.451729 -1.318801 7.437578 45 35 26
-0.451729 -1.318801 7.437578 45 35 26
-0.179245 -0.613529 8.084773 97 73 47
-0.411655 -1.269186 7.656865 67 63 56
-0.293660 -0.846014 8.174056 52 55 65
-0.399883 -0.525888 8.185648 116 93 67
-0.370637 -0.856980 8.281505 48 51 55
-0.535972 -0.333365 8.372395 117 120 125
-0.478970 -0.773062 8.363167 81 61 61
-0.391281 -1.131268 8.444384 122 115 105
-1.034614 -1.751148 7.642310 74 64 56
-0.546274 -0.036043 8.931839 71 62 53
-0.715919 -0.032598 8.839285 107 97 95
-0.812380 -1.245797 8.288372 54 51 46
-1.176593 -1.789779 7.677185 83 70 58
-1.176593 -1.789778 7.677185 83 70 58
-0.606141 -0.118390 9.225485 116 103 78
-1.095668 -1.387113 8.182746 56 53 48
-0.854500 -0.124100 9.058635 97 87 75
-0.856486 -0.195949 9.457463 89 82 50
-1.303184 -1.272297 8.780647 84 59 54
-2.034860 -0.693800 9.036598 116 95 95
0.553774 0.745184 7.709379 44 29 2
0.549486 0.708296 7.714802 49 34 7
0.617494 0.706214 7.893326 60 42 12
0.616693 0.645838 7.934897 85 69 42
0.128088 0.769953 7.114988 117 109 104
0.128088 0.769953 7.114988 117 109 104
0.607386 0.526040 8.157720 0 109 76
0.178856 0.364699 7.191336 1 0 1
0.615158 0.571892 8.270589 80 59 18
0.115591 0.721044 7.258347 17 14 12
0.278286 0.657756 7.611150 36 26 19
0.605492 0.523607 8.272164 35 11 103
0.175932 0.278894 7.262853 57 44 41
0.584351 0.467280 8.243176 63 51 30
0.588302 0.526065 8.283229 92 69 27
0.595766 0.459879 8.311130 81 61 27
0.482354 0.471245 8.106600 18 10 120
0.268388 -0.094635 7.432136 38 23 9
0.577243 0.465662 8.364917 36 16 103
0.557040 0.438656 8.328970 75 59 29
0.550981 0.440547 8.369039 92 71 32
0.118608 0.339815 7.456109 121 102 91
0.097206 0.614534 7.553794 48 32 21
0.214698 -0.359759 7.524827 27 8 116
0.033865 0.540080 7.572910 26 3 111
0.018067 0.294711 7.441374 101 98 97
0.483351 0.347280 8.428628 38 25 3
0.032571 0.553373 7.599466 71 48 25
0.489429 0.362855 8.504442 79 63 32
0.456050 0.315820 8.464725 79 68 48
0.467876 0.373395 8.533957 17 125 87
0.436860 0.308893 8.468139 81 69 44
0.415128 0.289958 8.438051 125 113 96
-0.053995 0.397578 7.602847 4 104 80
0.419588 0.301099 8.511111 113 100 74
0.211183 -0.724470 7.842765 109 95 77
-0.129873 0.381198 7.648996 20 122 98
0.043341 0.402814 8.013318 49 37 29
0.123785 0.365760 8.157303 40 30 20
0.138923 -0.755745 7.733285 81 68 52
0.138923 -0.755745 7.733285 81 68 52
0.149162 -0.764290 7.786082 96 81 63
-0.133049 0.319523 7.712266 83 61 39
0.360118 0.211567 8.629377 73 60 26
0.352960 0.227263 8.641346 68 54 24
-0.118382 0.323986 7.798534 69 48 29
0.069412 -0.816263 7.691109 111 102 91
-0.106945 0.410344 7.915912 60 48 35
0.024861 -0.501445 7.820322 66 43 41
0.019237 -0.557126 7.803553 112 88 84
0.015673 -0.886599 7.694897 56 49 36
-0.035860 -0.885361 7.611002 87 80 70
-0.074405 0.165352 7.999808 31 10 5
-0.074405 0.165353 7.999808 31 10 5
-0.034057 -0.350681 7.892116 102 75 67
0.017094 -0.612986 7.892438 112 114 117
0.062863 -0.827719 7.917408 89 81 71
-0.089762 0.325393 8.152840 80 72 58
0.277187 0.168117 8.790547 76 62 35
0.232330 0.152841 8.712298 78 63 34
-0.119864 0.206580 8.122876 89 77 48
-0.012499 -0.609212 7.977485 78 67 67
-0.084945 -0.431889 7.941026 110 75 49
-0.087849 -0.338660 7.994795 66 34 8
-0.153036 -0.980032 7.636002 16 7 124
-0.153036 -0.980032 7.636002 16 7 124
-0.114617 0.044804 8.163716 75 54 45
-0.137533 0.102758 8.151635 31 13 0
-0.198992 -1.009817 7.574919 31 22 12
-0.137605 -0.056536 8.112764 59 35 30
-0.106163 -0.486378 8.006196 96 70 41
-0.130621 -0.139800 8.135278 122 101 93
0.151873 0.120028 8.735363 74 61 40
-0.088601 -0.657762 7.992484 57 34 33
-0.134653 -0.202756 8.130208 81 62 49
-0.150244 -0.294027 8.074123 73 48 25
-0.148994 -0.574077 7.976436 78 47 17
-0.145447 -0.173712 8.164704 9 115 107
-0.214610 0.189964 8.216768 50 37 7
0.005515 -0.879403 8.150664 96 96 94
-0.188041 0.080852 8.238574 51 28 14
-0.073922 -0.951852 7.995079 103 95 82
-0.073922 -0.951852 7.995079 103 95 82
-0.182655 -0.462024 8.021067 84 54 27
-0.141012 -0.481926 8.127540 85 53 24
-0.231053 -0.295897 8.064415 126 104 89
-0.016684 -0.837901 8.219835 73 63 53
-0.209794 -0.386792 8.090424 91 62 33
-0.196739 -0.622872 8.022281 81 50 28
-0.255295 -1.087524 7.731742 12 5 124
-0.190691 -0.535462 8.076718 107 82 53
-0.190691 -0.535462 8.076718 107 82 53
-0.241875 -0.206169 8.133248 63 43 12
0.143915 0.130056 8.942314 75 57 24
0.151724 0.077807 8.934920 104 91 60
-0.282542 0.015811 8.185887 4 116 96
0.101529 0.066088 8.857692 20 8 115
-0.316689 0.090135 8.186503 23 8 113
-0.219048 -0.486241 8.117008 64 32 2
-0.269499 -1.109663 7.774782 76 70 61
-0.208295 -0.521746 8.143662 72 41 14
-0.514105 -1.292163 7.319677 87 79 73
-0.281072 -0.248676 8.155525 108 114 115
-0.335488 0.082258 8.211980 86 64 40
-0.186613 -0.741128 8.119360 34 10 3
-0.068372 -1.046352 8.195437 114 110 105
-0.529836 -1.268033 7.344338 84 71 57
-0.233278 -0.531766 8.154953 3 99 84
-0.371930 0.153749 8.248934 92 70 46
-0.557383 -1.336840 7.310371 76 68 60
-0.091262 0.045708 8.685353 118 107 103
-0.452200 -1.235875 7.569451 57 52 46
0.057142 0.040885 8.948540 61 48 19
-0.054586 0.076051 8.790252 35 27 18
-0.058463 0.053670 8.787017 109 101 93
-0.088089 0.031168 8.734283 32 21 18
-0.323659 -0.380497 8.181117 52 19 1
-0.371775 -0.087256 8.245416 124 126 124
-0.084508 0.046422 8.768833 34 26 21
0.051653 0.022426 8.979154 91 77 47
-0.405950 0.122072 8.298052 88 67 45
-0.368488 -0.125441 8.258523 103 101 97
-0.649485 -1.382581 7.273761 63 55 48
-0.428557 -0.038458 8.232179 123 123 124
-0.423845 0.050865 8.300644 86 61 38
-0.382704 -0.130381 8.294965 8 8 4
-0.382704 -0.130381 8.294965 8 8 4
-0.396358 -0.243579 8.231139 16 16 16
-0.413489 -0.352420 8.165431 107 77 63
-0.407778 -0.122177 8.276740 5 3 0
-0.112478 0.026264 8.836246 90 82 76
-0.386514 -0.353586 8.255027 89 68 60
-0.643973 -1.335665 7.466862 34 26 18
-0.170184 0.029471 8.808768 30 23 18
-0.642333 -1.400706 7.450015 70 62 54
-0.642333 -1.400706 7.450015 70 62 54
-0.423847 -0.352063 8.262345 104 84 77
-0.407337 -0.322935 8.305188 110 112 116
-0.449431 -1.300421 7.825229 65 63 58
-0.319391 -0.780200 8.256618 50 49 49
-0.437092 -1.301826 7.885302 36 32 26
-0.519217 0.063203 8.356415 97 72 47
-0.509833 -0.092649 8.331467 107 112 114
-0.490307 -0.265710 8.320425 36 36 35
-0.490307 -0.265710 8.320425 36 36 35
-0.183473 -0.075275 8.876492 70 57 49
-0.306402 -1.088130 8.255589 110 93 78
-0.525699 -0.129382 8.342778 39 39 42
-0.196974 -0.048892 8.880152 102 92 89
-0.199802 -0.018970 8.901037 27 19 16
-0.195749 -0.108919 8.869600 88 75 66
-0.154916 0.003337 8.984759 30 20 3
-0.819797 -1.471842 7.359005 45 40 33
-0.783804 -1.366017 7.467133 83 72 59
-0.450467 -0.650055 8.337887 86 51 19
-0.491818 -1.300692 7.999724 33 28 22
-0.732360 -1.399950 7.612701 11 6 1
-0.468013 -0.654253 8.347440 105 77 52
-0.375418 -1.274080 8.216543 71 64 56
-0.545412 -0.458240 8.339151 84 48 26
-0.545412 -0.458240 8.339151 84 48 26
-0.190269 -0.048157 9.055981 95 79 47
-0.407776 -1.042425 8.321487 65 46 44
-0.168003 -0.013539 9.131417 114 95 64
-0.168003 -0.013539 9.131417 114 95 64
-0.776156 -1.455987 7.600011 75 68 61
-0.507267 -0.636422 8.371393 88 60 36
-0.385682 -1.052750 8.375339 53 36 22
-0.385682 -1.052750 8.375339 53 36 22
-0.453654 -0.849846 8.399581 103 79 70
-0.597411 -1.339398 8.027037 23 17 10
-0.351933 -1.073012 8.550651 110 92 68
-0.280716 -0.060452 9.105804 95 79 47
-0.309448 -0.072630 9.092736 22 8 115
-0.629317 -0.581945 8.417855 3 106 89
-0.559446 -0.118360 8.740091 49 26 8
-0.662838 -1.348804 8.049526 34 27 20
-0.445619 -0.508120 8.751554 15 125 100
-0.560943 -0.131271 8.756158 72 46 27
-0.664163 -1.305031 8.100443 81 76 69
-0.561797 -0.091649 8.802362 70 41 20
-0.951028 -1.518729 7.723334 67 61 56
-0.606833 -0.939133 8.483575 126 126 127
-0.527998 -0.570311 8.815274 46 29 4
-0.730873 -0.638520 8.526736 106 90 73
-0.814549 -1.328419 8.106593 34 29 23
-0.814549 -1.328419 8.106593 34 29 23
-0.691677 -0.404650 8.710311 57 40 40
-1.039228 -1.797019 7.643863 89 77 71
-0.531411 -1.103333 8.647665 28 12 117
-0.975250 -1.806275 7.748087 98 95 94
-1.031843 -1.611492 7.822295 10 117 102
-1.019080 -1.771853 7.768364 79 51 32
-0.773345 -0.344897 8.764555 23 1 126
-1.044426 -1.714609 7.805017 17 120 103
-0.634472 -1.138976 8.610359 43 33 20
-0.747289 -0.925845 8.567487 74 72 71
-0.747289 -0.925845 8.567487 74 72 71
-1.059066 -1.583001 7.859041 35 13 125
-1.080271 -1.845501 7.724954 24 4 121
-0.668715 -0.091141 9.078544 66 53 42
-0.810623 -0.862495 8.560491 66 68 75
-0.783187 -0.942646 8.566021 105 107 115
-0.556841 -0.152980 9.225627 48 37 24
-0.801066 -0.966403 8.548949 121 121 123
-1.191553 -1.837218 7.648739 35 18 9
-0.907397 -1.342171 8.251176 89 83 74
-0.850831 -0.751487 8.594948 100 104 109
-1.113245 -1.732807 7.822149 24 127 111
-1.113245 -1.732807 7.822149 24 127 111
-0.766477 -0.652672 8.764673 62 51 38
-0.766477 -0.652672 8.764673 62 51 38
-1.120487 -1.773927 7.809817 16 115 97
-1.120487 -1.773927 7.809817 16 115 97
-1.115929 -1.789902 7.809107 55 20 0
-0.836528 -0.973575 8.540844 105 98 93
-0.928275 -1.344383 8.266905 49 42 36
-0.742075 -1.160462 8.597643 107 102 91
-0.814901 -0.434950 8.855106 53 26 18
-0.855106 -0.322062 8.863587 74 50 41
-0.921025 -0.779310 8.595544 90 88 88
-0.868791 -0.145786 8.954658 72 53 44
-1.163102 -1.611872 7.922425 38 18 2
-0.731775 -1.093460 8.714967 83 75 65
-1.161462 -1.813645 7.847788 54 27 8
-1.246828 -1.888375 7.711125 93 95 103
-1.004080 -1.408676 8.238367 90 87 82
-1.004080 -1.408676 8.238367 90 87 82
-0.846295 -0.127695 9.025353 60 35 19
-0.763703 -1.149078 8.679347 105 95 84
-1.179307 -1.694883 7.905889 78 58 42
-0.881204 -1.008754 8.605698 105 103 101
-1.023504 -1.396327 8.263789 94 89 82
-1.256293 -1.818357 7.793115 95 88 87
-0.883467 -1.234122 8.566830 90 83 76
-0.883467 -1.234122 8.566830 90 83 76
-0.998057 -0.873135 8.615845 99 91 82
-1.048179 -0.123680 8.903910 39 27 10
-1.006169 -0.903703 8.654897 114 111 107
-0.879133 -1.213346 8.671966 108 100 91
-0.887586 -1.185083 8.694983 108 100 91
-1.127866 -0.676541 8.632717 79 51 36
-0.960201 -1.250267 8.609003 45 37 27
-0.960201 -1.250267 8.609003 45 37 27
-1.261902 -1.517353 8.120976 77 75 72
-1.015556 -1.005741 8.662808 112 116 121
-1.145737 -1.458402 8.298300 97 91 86
-1.145737 -1.458402 8.298300 97 91 86
-0.985566 -1.283294 8.575984 49 38 28
-1.104262 -0.175987 8.935032 59 36 29
-1.152477 -0.679433 8.650423 48 22 15
-0.964173 -1.265720 8.629415 102 95 86
-0.953785 -1.239021 8.654567 46 40 31
-0.942572 -1.225382 8.720977 101 95 86
-1.330372 -0.331408 8.669173 119 122 0
-0.727795 -0.198857 9.456900 30 14 109
-1.132731 -1.376356 8.449866 37 32 27
-1.132731 -1.376356 8.449866 37 32 27
-0.706203 -0.141458 9.523250 48 28 118
-1.135690 -1.395238 8.458010 94 88 84
-1.114912 -1.350129 8.513345 94 87 80
-1.193790 -1.436755 8.384246 42 38 31
-1.257323 -1.525399 8.286032 15 9 3
-1.203193 -1.449523 8.393582 89 86 79
-1.203193 -1.449524 8.393582 89 86 79
-1.201425 -0.800921 8.699673 96 79 78
-1.284902 -1.538292 8.269584 80 74 68
-1.284902 -1.538292 8.269584 80 74 68
-0.975566 -1.244790 8.803730 31 17 0
-0.838987 -0.202993 9.444612 9 125 101
-0.939370 -1.257674 8.875834 108 102 98
-1.163901 -1.402607 8.559676 94 87 81
-1.476147 -0.129985 8.817711 15 125 113
-1.111070 -1.349300 8.687030 86 81 72
-1.111070 -1.349300 8.687030 86 81 72
-1.145508 -1.378216 8.639186 92 85 77
-1.122020 -1.367823 8.702430 38 29 18
-1.562961 -0.310652 8.688798 98 95 97
-1.209668 -1.162197 8.717471 115 96 95
-1.174947 -1.234448 8.738740 100 84 73
-1.593251 -0.222245 8.726108 98 100 102
-1.314856 -1.521758 8.468055 97 92 84
-1.126271 -1.373520 8.760000 84 74 62
-1.580686 -0.099012 8.839864 108 93 82
-1.580686 -0.099012 8.839864 108 93 82
-1.197061 -1.249203 8.762156 88 69 64
-1.221398 -1.239820 8.741658 93 74 70
-1.206802 -1.264113 8.747996 91 78 69
-1.489492 -0.662236 8.705719 99 72 60
-1.315754 -1.483583 8.537747 32 25 14
-1.294358 -1.171739 8.720587 100 82 88
-1.259592 -1.431427 8.641144 38 30 23
-1.644050 -0.237326 8.782392 16 14 16
-1.641080 -0.329779 8.747523 103 106 112
-1.214776 -1.443528 8.716518 100 94 88
-1.214776 -1.443528 8.716518 100 94 88
-0.988621 -0.240397 9.542935 86 75 49
-1.768488 -0.233592 8.702836 50 42 39
-1.186369 -1.381735 8.827182 51 47 43
-1.329117 -1.258156 8.762323 71 47 37
-1.767013 -0.301191 8.723740 82 84 87
-1.301026 -1.443189 8.726994 107 100 94
-1.512114 -1.062279 8.684099 7 8 15
-1.271861 -1.404292 8.822740 39 29 17
-1.730374 -0.592493 8.698816 126 100 92
-1.571001 -0.984544 8.692483 102 105 116
-1.738260 -0.607311 8.692075 57 29 12
-1.284719 -1.438466 8.801141 91 82 70
-1.286424 -1.419619 8.822880 95 88 76
-1.475639 -1.219309 8.715854 64 37 30
-1.337227 -1.436105 8.786875 33 26 17
-1.337174 -1.414225 8.804124 44 34 22
-1.445703 -1.441232 8.692466 101 97 91
-1.793495 -0.757396 8.679366 94 68 64
-1.961412 -0.232483 8.750352 10 11 16
-1.961412 -0.232483 8.750352 10 11 16
-1.394444 -1.358160 8.842943 107 106 109
-1.928846 -0.238401 8.801825 80 82 85
-1.958448 -0.109649 8.850290 83 59 42
-1.958448 -0.109649 8.850290 83 59 42
-1.475331 -1.364759 8.817489 46 39 31
-1.621071 -1.176303 8.780214 108 96 86
-1.137576 -0.191574 9.734722 107 87 52
-1.137576 -0.191574 9.734722 107 87 52
-1.549304 -1.278240 8.837263 119 113 110
-2.010195 -0.567990 8.688825 16 119 103
-1.933739 -0.704244 8.708791 48 19 3
-1.954004 -0.096966 8.962148 50 26 21
-1.939851 -0.243914 8.913157 119 105 84
-1.633001 -1.191217 8.838709 118 111 103
-2.010321 -0.157166 8.926480 5 116 103
-1.895841 -0.945155 8.706614 27 7 6
-1.642064 -1.219110 8.850809 50 38 28
-1.890391 -0.970667 8.713658 83 64 61
-2.072570 -0.590354 8.704865 86 63 41
-2.109154 -0.574305 8.677857 87 64 41
-2.196309 -1.554595 8.152378 58 55 51
-2.069221 -0.706197 8.687803 124 96 87
-1.784241 -1.144965 8.805136 110 100 92
-2.275464 -1.508716 8.133439 48 43 37
-1.783356 -1.107618 8.835590 100 89 79
-2.252036 -0.303825 8.739049 79 58 36
-2.175492 -0.198918 8.873734 71 48 41
-2.175492 -0.198918 8.873734 71 48 41
-2.322810 -0.246458 8.822377 9 118 106
-2.131551 -1.293729 8.548125 51 46 40
-1.374492 -0.294119 9.779929 109 104 87
-2.329005 -0.104462 8.954972 48 24 20
-2.329005 -0.104461 8.954972 48 24 20
-1.290252 -0.168681 9.949252 44 21 107
-1.309588 -0.157755 9.937655 45 21 109
-2.559823 -0.258829 8.716780 95 73 67
-2.536978 -0.375737 8.701226 116 93 89
-1.393127 -0.266744 9.848352 96 77 41
-2.581550 0.042281 8.921338 97 95 97
-2.544929 -0.141909 8.882951 5 5 6
-2.439281 -0.905428 8.645792 127 102 91
-2.520421 -0.256779 8.903833 0 0 0
-2.601645 0.045056 8.966039 4 0 122
-1.675436 -0.262819 9.722196 118 106 83
-2.529245 0.014755 9.069298 24 20 9
-1.814910 -0.202672 9.743800 49 35 9
0.235844 0.824886 7.263042 26 17 10
0.495229 0.717313 7.707577 78 64 35
0.330717 0.782789 7.445726 89 80 66
0.281787 0.801931 7.370841 37 28 20
0.520104 0.714007 7.788734 65 50 21
0.558316 0.717369 7.940308 82 62 26
0.322448 0.709732 7.557689 100 92 81
0.539622 0.644175 7.962937 93 79 50
0.148813 0.739356 7.367356 70 61 54
0.532492 0.676005 8.029881 114 91 48
0.517514 0.653437 8.035333 102 79 36
0.535055 0.665682 8.069795 47 25 111
0.143644 0.397932 7.335614 81 59 37
0.102954 0.647978 7.417348 89 61 39
0.078220 0.654842 7.449831 16 124 110
0.497231 0.609479 8.160523 107 87 45
0.101346 0.390515 7.441999 123 104 91
0.215300 0.601535 7.733199 7 126 115
0.169049 0.623885 7.671301 66 56 46
0.050931 0.615319 7.518209 12 118 103
0.450753 0.534840 8.187789 97 83 50
0.428632 0.506700 8.232036 85 70 39
0.024899 0.352011 7.526432 15 16 18
0.181197 -0.448582 7.538470 111 98 84
0.038033 0.579875 7.685880 58 45 35
0.038033 0.579875 7.685880 58 45 35
0.406748 0.490191 8.272431 81 65 35
-0.040251 0.577163 7.614089 90 71 55
-0.014575 0.337768 7.588456 102 106 112
-0.035949 0.387840 7.601820 104 82 60
-0.070300 0.515932 7.605230 44 20 127
-0.047136 0.155768 7.549417 11 14 20
-0.059211 0.234971 7.578866 37 38 38
-0.048554 0.224172 7.643723 24 26 25
0.110642 0.419442 8.100709 125 117 105
0.288698 0.361194 8.371147 87 75 44
0.266383 0.346514 8.378571 96 84 51
-0.126928 0.124108 7.697702 98 80 61
-0.162188 0.461799 7.815510 85 74 59
-0.028078 -0.242261 7.780283 118 117 120
-0.015906 -0.253299 7.798939 117 116 119
-0.066535 0.020569 7.862512 98 74 51
0.048667 -0.845771 7.803966 105 98 89
-0.064943 0.002358 7.952195 14 115 108
-0.017580 -0.456688 7.861452 86 62 58
-0.082290 0.072931 7.962628 13 114 107
0.219768 0.318754 8.517780 126 114 83
-0.044828 -0.417844 7.864651 1 102 93
-0.110369 0.119756 7.991976 98 75 63
-0.110369 0.119756 7.991976 98 75 63
-0.108948 -0.211295 7.872848 78 51 31
-0.057231 0.341693 8.168103 75 67 56
-0.103898 0.152163 8.031011 106 86 77
-0.095556 -0.264423 7.915975 78 50 26
-0.123126 -0.219329 7.896600 88 61 40
-0.087253 -0.326536 7.922017 80 53 26
0.176976 0.261264 8.554747 87 73 46
-0.138669 0.172174 8.084787 58 44 15
-0.040914 0.308082 8.277514 75 66 56
-0.116239 -0.037317 8.059617 6 113 91
0.100069 -0.789294 8.103098 112 112 109
0.062680 -0.779264 8.056683 120 115 107
0.062680 -0.779264 8.056683 120 115 107
0.062680 -0.779264 8.056683 120 115 107
-0.157687 0.008893 8.103951 74 48 42
-0.093053 0.284454 8.321986 63 55 44
0.007402 -0.814288 8.067936 44 31 15
-0.188964 -0.019454 8.115229 50 21 18
-0.056676 -0.924177 7.970784 101 92 82
0.103100 0.226766 8.683804 100 85 49
-0.202567 -0.179517 8.134278 121 99 86
-0.152692 0.237880 8.394111 73 66 56
-0.456156 -1.342823 7.393627 98 92 89
-0.261635 0.142353 8.234358 80 68 41
-0.083578 -0.870686 8.149097 118 101 80
-0.347269 -1.193404 7.663340 82 79 74
-0.271376 -0.357743 8.090235 100 72 43
-0.237826 -0.525665 8.080355 102 72 46
-0.085441 -0.894396 8.185851 58 41 22
-0.312842 0.006802 8.223488 107 110 115
-0.384618 0.243810 8.246841 87 71 52
-0.495789 -1.350670 7.498482 96 87 79
-0.556174 -1.419535 7.391929 87 80 74
-0.300979 -0.374776 8.160512 94 61 46
-0.205416 -1.171093 7.990527 126 116 107
-0.198047 0.148061 8.533524 56 46 38
-0.543613 -1.356008 7.545037 102 95 88
-0.047852 0.111862 8.783198 126 117 98
-0.379350 -1.263812 7.813046 78 73 68
-0.403330 -0.107018 8.231623 67 66 63
-0.365893 -0.367445 8.205263 2 101 86
-0.455474 0.184542 8.317009 55 37 20
-0.400875 -0.395218 8.172001 108 83 55
-0.400875 -0.395218 8.172001 108 83 55
-0.342453 -0.754745 8.166818 23 26 32
-0.290359 -0.923789 8.209980 124 126 127
-0.506533 0.095706 8.333962 39 16 122
-0.496277 0.069915 8.346397 105 83 61
-0.093484 0.104645 8.899995 113 96 60
-0.735829 -1.502053 7.460916 61 59 54
-0.491963 0.125499 8.437365 55 42 24
-0.487722 -1.323215 7.915402 48 41 34
-0.357436 -0.994684 8.219005 42 19 20
-0.514867 -1.323560 7.917119 97 93 88
-0.309061 -1.134754 8.260320 114 96 70
-0.477489 -0.564655 8.284183 82 57 31
-0.554762 -0.034002 8.408704 73 53 36
-0.728040 -1.429307 7.663985 107 103 101
-0.331281 -1.153123 8.376554 125 118 108
-0.530028 -0.656088 8.330358 87 60 43
-0.642502 -1.335505 7.995250 97 92 86
-0.558094 -0.620181 8.389521 15 115 107
-0.585447 -0.591768 8.371287 121 93 84
-0.659767 -1.327979 8.046209 98 94 89
-0.528636 -0.885589 8.403819 122 123 124
-0.362334 -0.012844 9.021026 113 100 69
-0.639599 -1.228219 8.272138 103 99 96
-0.785192 -1.319340 8.064577 91 88 83
-0.531971 -1.128433 8.451636 114 107 97
-0.690114 -0.777858 8.497609 121 125 6
-0.725157 -0.744779 8.474168 104 107 116
-0.571180 -0.633355 8.770947 106 99 87
-0.598055 -0.062640 8.984780 8 127 116
-0.598055 -0.062640 8.984780 8 127 116
-0.757415 -0.168460 8.802653 6 115 115
-1.136988 -1.767014 7.841125 106 89 74
-0.577487 -0.103363 9.187685 106 92 64
-1.014887 -1.345813 8.264884 113 110 105
-0.860514 -0.138090 8.941960 127 109 108
-1.004370 -1.329195 8.294485 66 63 58
-0.856568 -0.124858 9.055714 100 89 75
-1.044063 -1.315440 8.383030 56 53 48
-0.933028 -1.198285 8.579246 68 63 54
-0.987900 -0.151583 8.968142 24 13 121
-0.987900 -0.151583 8.968142 24 13 121
-0.832416 -1.135544 8.752936 61 44 21
-1.294169 -1.516781 8.189931 96 93 89
-1.183884 -1.415487 8.359762 105 102 97
-0.764650 -0.087486 9.398628 126 118 83
-1.024639 -1.244302 8.638683 107 103 96
-1.044982 -1.284228 8.606991 58 53 47
-1.126981 -0.753717 8.758025 122 125 124
-0.865007 -0.187983 9.297074 19 14 0
-0.865007 -0.187983 9.297074 19 14 0
-1.230680 -0.548917 8.789915 120 122 7
-1.329620 -0.189194 8.902935 101 88 79
-1.179374 -0.954161 8.741576 52 25 21
-1.160258 -1.375587 8.624668 103 98 92
-0.916586 -0.206026 9.432681 41 32 2
-1.362563 -0.565354 8.837323 50 53 58
-1.322123 -0.729408 8.817955 73 47 31
-1.718738 -1.729801 7.999355 63 62 57
-1.125625 -1.377585 8.758182 97 90 79
-1.447421 -0.268837 8.957533 108 93 79
-0.970008 -0.237722 9.491818 96 89 67
-1.275332 -1.210433 8.785154 110 90 96
-1.476133 -0.488808 8.902471 88 90 94
-1.490890 -0.290249 8.994242 52 34 32
-1.529953 -0.343939 8.979999 114 121 124
-1.529953 -0.343939 8.979999 114 121 124
-1.553211 -0.242505 9.012150 77 60 46
-1.519858 -0.390545 8.994875 108 114 122
-1.052426 -0.236417 9.527675 51 42 13
-1.234366 -1.380136 8.859586 115 111 109
-1.234366 -1.380136 8.859586 115 111 109
-1.555214 -0.387334 8.992437 109 112 120
-1.067854 -0.207690 9.557440 105 93 61
-1.945885 -1.756484 8.042810 0 0 0
-1.666495 -0.306874 9.007689 48 36 31
-1.627376 -0.395951 9.016086 76 79 85
-1.473491 -1.202204 8.840770 85 64 64
-1.659899 -0.344507 9.071861 32 21 9
-1.695768 -0.546973 9.017759 111 87 67
-1.731435 -0.568205 8.987380 107 80 56
-1.256433 -0.279088 9.569445 74 68 34
-1.755133 -0.345565 9.091902 86 70 57
-1.741162 -0.611084 8.993664 106 88 67
-1.624295 -1.057786 8.909140 45 24 26
-1.566658 -1.104445 8.954607 92 73 68
-1.760945 -0.646865 8.989231 87 63 44
-1.777610 -0.245502 9.156756 11 1 119
-1.769703 -0.346708 9.129634 81 67 55
-1.794760 -0.702825 8.955271 13 113 105
-1.774732 -0.297219 9.189918 58 41 34
-1.817104 -0.525264 9.056236 90 74 53
-1.296977 -0.269465 9.652747 20 17 2
-1.851043 -0.528410 9.052808 26 10 121
-1.797736 -0.226202 9.252523 26 9 10
-1.792859 -0.859760 8.975171 97 74 58
-1.856316 -0.682726 8.998459 116 90 84
-1.846715 -0.385276 9.145529 75 56 50
-1.888899 -0.567080 9.053138 36 18 126
-1.829301 -0.360953 9.199914 65 47 43
-1.907125 -0.377736 9.159821 64 48 33
-1.373452 -0.270637 9.691620 113 107 88
-1.806035 -0.234880 9.323662 104 94 92
-1.922065 -0.704350 9.013538 99 72 65
-1.419333 -0.230649 9.684015 52 44 21
-1.942088 -0.447922 9.122196 89 72 55
-2.010016 -0.553218 9.033292 74 55 41
-1.992336 -0.594445 9.059013 11 118 114
-1.992038 -0.564384 9.078014 14 123 118
-2.049489 -0.196740 9.213095 127 118 116
-1.964656 -0.774853 9.035626 114 90 84
-1.968338 -0.815882 9.022543 127 103 98
-2.041585 -0.304095 9.189371 118 108 106
-2.003205 -0.753677 9.068543 61 51 51
-0.368244 -0.053676 8.330926 96 101 102
-0.833326 -1.475890 7.762100 100 92 84
-0.890710 -1.665514 7.599798 0 0 0
-2.047511 -0.675270 8.880379 87 62 43
-0.281166 0.447896 7.214740 17 17 19
-0.319603 -0.684376 8.226238 111 98 98
-1.268542 -1.772278 7.911543 0 0 0
-1.445643 -0.578693 8.795676 93 97 106
-1.819651 -0.639736 8.862555 109 81 74
-1.771474 -0.855883 8.878917 93 75 76
-2.144380 -1.590900 8.063950 61 56 49
-2.197713 -0.796394 8.896269 85 75 74
0.022869 0.972847 6.866511 106 101 97
0.089226 0.561363 7.571843 81 51 31
-0.113998 -0.731292 8.080056 115 90 79
-0.244994 -0.642120 8.178151 74 55 51
-0.244994 -0.642120 8.178151 74 55 51
-0.368279 -0.397027 8.188637 97 73 47
-0.459340 -1.067020 8.537922 111 97 78
-0.660315 -0.441493 8.734528 7 116 115
-0.716729 -0.183515 8.792017 125 107 108
-1.253535 -0.236460 9.569959 69 61 35
-1.881447 -1.029073 8.873522 12 126 125
0.641082 0.548956 8.298928 46 26 115
0.218556 0.416276 7.374879 48 35 34
0.583314 0.450311 8.236795 94 85 65
0.609225 0.502816 8.349841 39 16 104
0.183195 0.390875 7.455604 59 32 10
0.566689 0.398200 8.322766 73 60 34
0.553970 0.394638 8.305887 108 100 76
0.543615 0.417439 8.298754 74 60 34
0.508627 0.371208 8.346269 52 45 26
0.520850 0.367667 8.374695 111 105 88
0.520850 0.367667 8.374695 111 105 88
-0.251991 1.184918 7.146353 106 96 76
-0.014273 0.253333 7.654958 26 26 26
0.214678 -0.778141 7.818245 8 122 106
0.368688 0.247577 8.543782 71 57 29
0.087626 -0.382955 7.902959 103 103 105
0.271030 0.178838 8.712609 75 62 35
0.256034 0.169611 8.698050 121 105 82
-0.048044 -0.060390 8.089002 91 65 36
-0.053060 -0.981590 7.737470 24 15 6
-0.026454 -0.967126 7.940946 83 76 64
-0.105685 -0.097531 8.186201 99 73 68
-0.097257 -0.200450 8.172038 46 27 18
-0.127564 -0.056735 8.243002 57 24 23
-0.163386 -0.442706 8.102414 16 111 81
0.092076 0.076000 8.910347 12 1 108
-0.366640 0.194515 8.339367 69 50 32
-0.247100 -0.735776 8.196428 102 105 108
-0.172402 0.034157 8.807881 31 25 21
-0.232968 -1.218050 8.196225 85 76 60
-0.509528 -0.140273 8.362965 44 45 49
-0.522900 -0.167168 8.355607 33 34 34
-0.208697 -0.024183 8.910474 83 73 72
-0.155867 0.077696 9.123172 91 73 35
-0.155867 0.077696 9.123172 91 73 35
-0.581537 -0.386427 8.441188 102 106 110
-0.496309 -0.557826 8.751635 77 62 40
-0.670524 -0.788988 8.513544 100 103 110
-0.702413 -0.872497 8.519692 106 109 115
-0.813968 -1.287307 8.184645 89 84 78
-0.874820 -1.340156 8.116541 84 77 71
-1.115775 -1.811559 7.760306 103 90 79
-0.766526 -1.135437 8.632597 41 32 21
-0.809430 -0.138265 9.249890 127 120 104
-1.212660 -0.128278 8.928176 54 37 32
-1.023980 -1.182325 8.706303 81 71 56
-1.010173 -1.160377 8.757896 115 113 109
-1.146877 -0.973712 8.724540 99 89 96
-1.244312 -1.364415 8.539196 41 33 24
-1.244312 -1.364415 8.539196 41 33 24
-1.316057 -1.406286 8.503704 89 80 70
-1.178682 -1.324316 8.707804 22 9 121
-1.208699 -1.361257 8.674525 89 80 69
-1.172538 -1.290941 8.762711 29 22 14
-1.341802 -1.189076 8.690683 110 90 88
-1.675178 -0.517485 8.768349 97 100 107
-1.629819 -1.054490 8.716993 97 85 101
-1.764128 -1.194581 8.855621 25 10 125
-2.042982 -0.885732 8.768144 64 50 57
-1.949355 -1.204930 8.786308 53 45 37
-2.130179 -0.904229 8.783380 99 98 98
-2.392707 -1.195947 8.538103 54 46 37
0.527032 0.616841 7.824637 49 39 18
0.131765 0.522231 7.513761 99 68 44
0.165812 0.606467 7.649055 62 50 39
0.084528 0.527774 7.552127 10 109 88
0.152089 0.137869 7.526895 107 110 115
0.118889 0.174157 7.514948 33 35 40
0.118889 0.174157 7.514948 33 35 40
0.077467 0.588080 7.622252 83 69 58
0.004686 0.536930 7.687403 92 74 56
0.237490 -0.527684 7.669397 23 2 110
0.019537 0.516689 7.775729 7 123 113
0.085491 -0.866085 7.725822 101 92 81
0.038659 -0.343085 7.856671 119 118 120
0.316886 0.300198 8.599448 99 85 53
-0.115452 -1.027985 7.795180 54 47 38
-0.201377 -1.105449 7.684878 46 38 31
-0.096339 -0.714359 8.053726 69 48 45
-0.096339 -0.714359 8.053726 69 48 45
-0.326662 -0.327738 8.194299 47 18 8
-0.307022 -0.950138 8.175451 111 90 92
-0.373936 -0.167027 8.442702 113 118 121
-0.064738 0.125057 9.019213 122 107 67
-0.617830 -0.037759 8.422497 66 49 40
-0.188277 -0.007700 8.993399 24 12 121
-0.297711 -0.088924 8.889445 67 59 51
-0.757369 -0.040786 8.890314 64 56 51
-1.064329 -1.266356 8.520226 105 98 91
-0.709566 -0.162486 9.277308 115 101 72
-1.324832 -0.278739 8.856421 117 121 124
-1.398428 -0.496919 8.800752 50 52 56
-1.310993 -0.993859 8.747597 37 41 50
-1.501622 -0.556568 8.838512 111 115 127
-1.550109 -0.328326 8.903666 124 123 126
-1.521294 -0.643537 8.802922 0 107 107
-2.061268 -1.634102 7.999226 78 73 69
-1.447991 -1.013054 8.758084 42 46 57
-0.999312 -0.217839 9.463536 91 84 62
-1.626426 -0.200032 8.974016 18 3 119
-1.701029 -0.654962 8.854887 37 13 8
-1.767350 -0.483768 8.927783 38 24 18
-1.638365 -1.012072 8.823527 109 91 95
-1.837137 -0.543912 8.925738 35 11 116
-1.659842 -0.195395 9.237016 85 76 66
-1.771180 -0.857239 8.878560 112 94 97
-1.963746 -0.685465 8.900614 10 114 102
-1.997777 -0.640160 8.896306 24 126 118
-1.943471 -0.390365 9.051347 84 60 55
-1.972215 -0.541704 8.967516 98 77 56
-1.367568 -0.230306 9.641208 41 34 15
-1.446660 -0.248783 9.604542 29 23 3
0.113835 0.831756 7.050490 71 65 60
0.658761 0.725445 7.823945 69 54 34
0.198410 0.783757 7.185339 83 77 71
0.283061 0.754258 7.300572 91 83 75
0.655248 0.683418 7.841000 113 96 67
0.678194 0.709925 7.919574 100 80 51
0.712336 0.659987 8.077774 115 94 60
0.712336 0.659987 8.077774 115 94 60
-0.231683 0.006228 6.561006 35 28 20
-0.231683 0.006228 6.561006 35 28 20
0.704918 0.598890 8.080085 105 86 52
-0.200567 0.001761 6.613893 83 74 67
0.306215 0.642390 7.544808 44 36 27
0.343640 0.137754 7.446877 63 51 47
0.400583 -0.009051 7.510650 24 13 122
0.648444 0.532571 8.034793 113 99 76
0.290142 0.190269 7.431509 71 58 55
0.247466 0.573067 7.500994 110 95 94
0.449789 0.575016 7.787453 105 96 85
0.406771 -0.063080 7.532591 99 93 84
0.607921 0.536791 8.018139 111 99 76
0.346274 0.608996 7.684000 108 97 90
0.279866 0.222747 7.473235 91 73 54
0.220002 0.615740 7.527780 85 67 53
0.248388 0.440977 7.524560 67 35 12
0.364385 0.592893 7.739145 67 56 49
0.708424 0.561594 8.216572 126 115 75
0.412867 0.566228 7.816998 122 113 104
0.220062 0.602710 7.586834 82 67 56
0.220062 0.602710 7.586834 82 67 56
0.283329 0.160707 7.537927 66 44 16
0.249721 0.247661 7.533042 70 44 20
0.249721 0.247661 7.533042 70 44 20
0.465946 0.585338 7.945580 115 105 85
0.218937 0.362690 7.539425 104 77 53
0.682709 0.468332 8.226043 95 82 55
0.703841 0.525855 8.274391 116 94 50
0.230555 0.265618 7.542101 106 80 57
0.374045 -0.272046 7.616698 47 35 25
0.204942 0.580231 7.664520 29 16 7
0.663160 0.456892 8.250290 85 71 44
0.254362 0.557653 7.729801 68 56 47
0.634437 0.462038 8.218484 7 123 99
0.373556 -0.240619 7.636966 56 46 35
0.192449 0.432974 7.610925 84 56 29
0.335400 -0.237685 7.607696 123 120 118
0.557057 0.442005 8.155970 113 103 86
0.156304 0.510347 7.647932 81 53 32
0.209955 0.513651 7.772457 34 21 12
0.117153 -0.114421 7.506513 113 116 117
0.218804 0.496359 7.856018 15 2 121
0.257495 0.465724 7.930955 86 74 61
0.084768 0.412712 7.700542 30 3 110
0.064608 0.481752 7.708622 53 31 10
0.071973 0.407860 7.716374 89 63 40
0.301261 -0.509116 7.720833 45 32 14
0.060808 0.447395 7.730724 88 66 43
0.598161 0.409563 8.437074 112 93 56
0.092271 0.254430 7.730049 106 109 116
0.074873 0.330986 7.740926 99 72 46
0.181969 0.451838 7.928495 14 1 121
0.078835 0.082410 7.695286 32 36 40
0.039691 0.290494 7.741586 77 64 51
0.011239 0.465366 7.774923 31 13 125
0.551549 0.344114 8.436111 97 88 68
0.551549 0.344114 8.436111 97 88 68
0.231576 0.413132 8.046997 69 57 43
0.165882 0.408527 8.026357 58 46 37
0.514757 0.319615 8.445528 101 93 79
0.271755 -0.646888 7.816385 108 89 56
-0.024436 0.282265 7.753439 66 57 46
-0.040315 0.343880 7.775527 44 21 127
-0.015485 0.278559 7.795290 111 90 67
-0.010068 0.204830 7.830445 107 110 118
0.507510 0.316871 8.564825 102 87 56
0.058340 -0.545062 7.718940 114 109 106
-0.038443 0.010381 7.805506 111 89 69
-0.052927 0.092133 7.824237 106 85 64
0.058732 -0.000996 7.936989 61 42 23
0.057456 -0.540180 7.754683 110 107 109
0.074150 -0.182583 7.925152 108 111 115
0.079835 -0.934057 7.680021 29 22 14
0.258910 -0.820396 7.949905 101 88 69
0.168191 -0.885459 7.816937 124 115 106
0.426761 0.252553 8.533191 107 96 66
0.003284 0.375236 8.056902 66 56 48
0.049250 -0.959989 7.671078 6 125 115
0.171158 -0.900664 7.857330 86 77 68
0.171158 -0.900664 7.857330 86 77 68
0.039447 0.338790 8.138839 35 26 17
0.447522 0.291413 8.630110 42 29 124
-0.014956 0.329899 8.079489 48 36 14
0.065509 -0.954296 7.738654 103 97 90
-0.003353 0.334003 8.102223 43 32 14
0.066164 0.329230 8.188661 83 74 65
0.113894 -0.621463 7.923038 7 112 107
0.086622 -0.916920 7.788609 89 82 71
0.086622 -0.916919 7.788609 89 82 71
-0.011470 0.240869 8.073635 63 35 26
-0.020169 0.117770 8.029854 72 54 37
-0.012987 -1.022527 7.655727 24 14 4
0.405260 0.234937 8.603779 51 40 9
0.049695 0.317335 8.212394 126 116 108
0.049695 0.317335 8.212394 126 116 108
0.205596 -0.758254 8.045605 124 102 65
0.324346 0.227312 8.540873 18 8 112
-0.023414 0.296632 8.146739 97 86 57
0.201359 -0.856219 8.020578 106 96 80
0.181250 0.264226 8.387959 16 8 123
0.049574 -0.386279 8.004040 114 84 74
0.063472 0.296218 8.258758 83 74 64
-0.096101 -1.071071 7.592810 77 71 63
-0.027359 0.234427 8.132361 60 45 12
0.207895 -0.830107 8.057977 100 86 65
-0.007581 -1.013844 7.737581 105 97 89
0.124568 0.268920 8.355378 88 78 66
0.124568 0.268920 8.355378 88 78 66
0.099668 0.269071 8.327610 28 19 9
0.053041 -0.564303 7.984576 114 97 99
0.348991 0.203134 8.610308 35 24 122
-0.031989 -1.024741 7.729453 57 50 42
0.370067 0.209506 8.644203 82 71 39
0.339671 0.209145 8.621013 88 77 47
-0.004481 -0.144691 8.087034 32 11 123
-0.066975 0.290483 8.176868 82 73 48
-0.009436 -0.219854 8.070302 121 93 75
0.010897 -0.984632 7.827365 123 117 110
-0.051392 0.071825 8.131953 62 41 20
0.032275 -0.527874 8.068333 112 91 67
-0.183318 -1.150342 7.597827 86 78 69
-0.137193 -1.102817 7.681711 97 89 81
0.013553 -1.007032 7.894427 43 37 29
-0.048488 -1.027519 7.818025 110 104 97
-0.031777 -0.278458 8.104328 99 76 68
-0.039803 -0.091387 8.178387 93 75 64
0.120694 -0.880917 8.093064 95 83 67
-0.013611 -1.003927 7.894860 106 98 89
-0.072104 -1.049024 7.810601 114 106 99
-0.240581 -1.186203 7.573092 97 91 84
-0.199253 -1.155113 7.634503 88 81 72
-0.154796 -1.118122 7.703505 108 101 95
-0.043897 -0.452077 8.077927 98 66 39
-0.043897 -0.452077 8.077927 98 66 39
-0.083189 -1.047139 7.824369 56 48 41
-0.143616 -1.101576 7.738079 28 21 13
-0.055446 -0.388565 8.094455 106 80 52
-0.072126 -0.097163 8.193404 77 53 48
-0.380057 -1.304521 7.407715 87 79 71
-0.059728 -0.327755 8.129510 89 62 33
0.254541 0.165254 8.676023 81 69 43
-0.080664 -0.361716 8.109247 99 72 45
0.038106 -0.949635 8.043806 107 99 89
-0.045710 -0.608487 8.068231 122 90 67
-0.045710 -0.608487 8.068231 122 90 67
-0.371013 -1.277388 7.460859 104 99 93
-0.006026 -0.711199 8.090877 73 51 50
-0.293773 -1.234073 7.575905 56 51 46
-0.141353 0.234428 8.280650 71 60 42
-0.141353 0.234428 8.280650 71 60 42
-0.110295 0.037963 8.265445 84 66 55
-0.107570 0.037334 8.268909 87 69 58
-0.133201 -0.007259 8.242341 85 61 57
-0.074973 -0.669484 8.074735 93 61 51
-0.494734 -1.408880 7.331018 71 67 64
-0.138246 0.062467 8.266127 20 3 116
-0.134247 -0.090807 8.232580 92 65 62
0.101680 -0.850860 8.236322 110 102 91
-0.433196 -1.346964 7.448056 51 39 30
-0.183249 -1.135853 7.815183 40 35 29
-0.154268 0.060899 8.279696 70 52 36
0.018153 -0.940961 8.121111 105 97 88
-0.150353 -0.146425 8.214639 99 79 70
-0.173376 -1.130259 7.843311 111 107 101
0.055469 -0.910741 8.186751 119 118 110
-0.125333 -0.230763 8.223913 2 108 95
-0.458526 -1.375134 7.467195 116 109 101
-0.458526 -1.375134 7.467195 116 109 101
0.162527 0.153853 8.749972 39 28 5
-0.385594 -1.283034 7.618613 85 81 74
-0.271446 -1.213042 7.816683 87 82 76
-0.509181 -1.385468 7.492692 41 32 25
-0.004847 -0.920365 8.239355 119 101 82
-0.234468 -0.313736 8.206554 9 116 110
-0.291220 -0.126399 8.212057 47 46 41
-0.514918 -1.394993 7.514025 97 88 81
-0.309573 0.176837 8.319636 47 28 11
-0.309573 0.176837 8.319636 47 28 11
-0.139532 -1.149634 8.036320 78 73 67
-0.378373 -1.301475 7.721209 47 42 33
-0.326013 0.127151 8.303126 109 89 69
-0.055060 -0.976986 8.216473 89 85 78
0.129277 0.100330 8.812677 87 76 55
-0.424386 -1.313704 7.696885 89 84 78
-0.233574 -0.472622 8.215680 121 88 74
-0.233574 -0.472622 8.215680 121 88 74
-0.165474 -1.184748 8.038247 71 61 52
-0.347790 -1.277478 7.803255 92 87 82
-0.347790 -1.277478 7.803255 92 87 82
-0.129698 0.127963 8.566996 70 61 52
-0.179273 -0.775241 8.191834 76 51 46
-0.582372 -1.375449 7.535327 64 57 50
0.138956 0.152106 8.899563 94 80 47
-0.556467 -1.408437 7.578670 101 92 84
-0.236627 -0.677884 8.204556 115 96 95
-0.329726 -0.198603 8.282744 26 26 27
-0.391359 -1.307853 7.816982 82 79 74
-0.391359 -1.307853 7.816982 82 79 74
-0.337365 -0.016365 8.364621 85 67 46
-0.286712 -0.516298 8.241321 112 93 70
-0.159111 -1.183314 8.144316 100 92 85
-0.117787 0.055356 8.661361 26 14 8
-0.229947 -1.242643 8.069886 43 36 27
-0.130448 -1.168730 8.207625 45 39 28
-0.004969 0.065893 8.810658 15 9 127
-0.094904 0.029555 8.706610 83 66 59
-0.161812 -1.114021 8.228348 113 109 101
-0.375446 -0.298337 8.301999 112 115 117
-0.286199 -0.850935 8.195247 90 94 103
-0.084362 0.032645 8.740096 55 44 41
-0.224351 -1.077246 8.193031 126 123 118
-0.800595 -1.511788 7.422359 32 31 27
-0.325953 -0.625291 8.266345 76 47 22
-0.183695 -1.184741 8.223244 115 110 100
-0.258827 -1.237926 8.137956 94 85 76
-0.077253 0.066100 8.817757 55 48 39
-0.447191 0.062750 8.427820 86 64 39
-0.351560 -0.754637 8.242582 39 38 40
-0.364399 -0.171648 8.451007 117 122 125
0.008550 0.031565 8.937687 22 12 117
-0.479633 0.084602 8.493483 63 51 34
-0.738499 -1.453376 7.651748 105 100 96
-0.509926 -0.420360 8.344281 11 113 108
-0.522522 -0.110592 8.448356 120 124 126
-0.453046 -1.282084 8.120237 96 91 85
-0.552909 -0.301400 8.385664 104 108 114
-0.207032 -0.029249 8.887935 119 109 106
-0.599033 -0.133359 8.446043 113 115 120
-0.548383 -0.515124 8.368910 82 52 23
-0.292759 -1.182442 8.389322 125 116 104
-0.584331 0.031701 8.551292 22 9 125
-0.424262 -1.005001 8.333674 122 115 118
-0.424262 -1.005001 8.333674 122 115 118
-0.594194 -0.004588 8.545012 75 62 49
-0.601731 -0.127823 8.498121 124 127 127
-0.872417 -1.471436 7.722523 113 105 100
-0.319609 -0.066834 8.830877 68 57 50
-0.636813 -0.246248 8.472459 72 52 34
-0.483954 -1.236375 8.268152 44 40 36
-0.364870 -1.001438 8.488689 30 9 113
-0.673949 -0.185300 8.487808 110 87 64
-0.458715 -1.205848 8.322808 43 37 29
-0.416636 -1.178413 8.384082 60 51 41
-0.416636 -1.178413 8.384082 60 51 41
-0.179136 0.090242 9.104560 114 100 62
-0.388559 -1.057737 8.462515 82 66 48
-0.541051 -0.425858 8.551535 13 124 104
-0.375515 -1.001768 8.506551 121 102 78
