ply
format ascii 1.0
element vertex 1314
property float x
property float y
property float z
property uchar red
property uchar green
property uchar blue
end_header
0.088509 1.028581 4.632850 27 25 18
0.082320 1.247319 4.223242 62 58 52
0.120889 0.248512 6.045597 34 41 31
0.119811 0.392213 5.792730 107 108 103
0.087184 1.307507 4.140425 69 68 63
0.129816 0.312257 5.940458 22 26 17
0.115261 0.677063 5.265314 75 75 68
0.115261 0.677063 5.265314 75 75 68
0.106114 1.045761 4.610796 73 74 68
0.108565 1.013501 4.656703 66 64 56
0.121644 0.716065 5.198455 78 78 68
0.131385 0.582378 5.455697 70 72 62
0.131386 0.582377 5.455697 70 72 62
0.138319 0.474114 5.634023 27 25 16
0.144942 0.376728 5.819114 87 88 83
0.155675 0.155364 6.230439 71 73 56
0.155675 0.155364 6.230439 71 73 56
0.144388 0.420502 5.728960 64 66 62
0.144388 0.420502 5.728960 64 66 62
0.149818 0.490178 5.611920 68 68 58
0.157600 0.370415 5.829992 63 63 56
0.129344 0.964597 4.751324 34 30 21
0.115026 1.268647 4.196035 115 111 105
0.164256 0.322422 5.917853 21 23 13
0.175097 0.196105 6.152991 30 34 24
0.169424 0.387644 5.810528 73 73 66
0.186581 0.099474 6.325138 23 28 10
0.137475 1.014575 4.649982 16 13 1
0.144212 0.913811 4.831776 73 71 61
0.129609 1.255009 4.224465 32 28 22
0.151393 0.930626 4.785138 16 12 3
0.139918 1.161117 4.395313 5 2 121
0.136537 1.246859 4.240223 111 108 101
0.140405 1.198322 4.344132 70 70 63
0.140405 1.198321 4.344132 70 70 63
0.192212 0.398931 5.781953 77 79 77
0.199324 0.366170 5.851564 65 70 64
0.231225 -0.138736 6.759703 54 62 40
0.216368 0.173213 6.192375 72 74 57
0.146930 1.293348 4.169253 56 53 45
0.204951 0.401284 5.768994 72 76 74
0.131781 1.543996 3.700028 34 32 28
0.221337 0.185030 6.176563 22 23 9
0.136239 1.508855 3.759949 26 21 15
0.204960 0.472452 5.645957 22 26 20
0.152993 1.275695 4.180995 103 101 95
0.200136 0.615083 5.388022 66 67 59
0.158375 1.244830 4.236578 67 66 59
0.220616 0.398123 5.787033 28 34 30
0.266845 -0.156143 6.800563 43 50 31
0.193040 0.920217 4.853687 62 60 49
0.172830 1.245832 4.227294 64 61 55
0.254669 0.169157 6.210766 16 20 5
0.173560 1.266978 4.203434 55 52 45
0.291806 -0.145412 6.758782 56 62 42
0.224409 0.770684 5.109962 31 28 18
0.224409 0.770684 5.109962 31 28 18
0.164346 1.531774 3.723168 67 69 65
0.195631 1.259169 4.224198 121 115 111
0.198456 1.245188 4.255915 54 50 43
0.302689 0.044856 6.427126 67 72 56
0.300128 0.256608 6.056318 11 16 6
0.301441 0.296934 5.971344 21 24 14
0.291470 0.415713 5.760399 75 72 70
0.213460 1.276554 4.182046 3 127 119
0.214876 1.265616 4.204779 39 36 29
0.310161 0.271868 6.019448 25 31 21
0.296013 0.430214 5.740772 77 83 76
0.324937 0.127133 6.290546 19 23 8
0.255077 0.883322 4.906726 64 62 50
0.231067 1.251208 4.240394 100 94 89
0.234091 1.265080 4.202712 107 103 97
0.233788 1.272769 4.186334 37 33 26
0.233788 1.272769 4.186334 37 33 26
0.238761 1.291574 4.157730 64 64 56
0.327168 0.460404 5.684485 96 97 92
0.330902 0.437942 5.727419 48 51 45
0.337043 0.397447 5.796944 82 85 78
0.334229 0.425974 5.746147 94 95 92
0.375984 0.035225 6.442124 14 18 2
0.338632 0.411236 5.773965 79 86 82
0.346290 0.346910 5.890495 22 23 12
0.404167 -0.193277 6.868537 58 65 45
0.339793 0.443824 5.709785 82 83 82
0.334296 0.520334 5.573372 72 73 64
0.336056 0.506114 5.588551 26 27 18
0.353153 0.434488 5.728128 71 76 72
0.353516 0.456651 5.684610 118 122 118
0.354292 0.504235 5.602545 73 74 64
0.266950 1.254334 4.218637 59 56 49
0.374621 0.399698 5.815606 76 80 76
0.375764 0.447405 5.714957 68 72 68
0.379139 0.430795 5.738310 67 71 67
0.246353 1.556273 3.694556 23 18 13
0.280999 1.276972 4.189300 104 101 95
0.415556 0.184101 6.189223 67 69 56
0.393789 0.388853 5.811500 21 22 11
0.281991 1.322733 4.118651 52 49 40
0.281991 1.322733 4.118651 52 49 40
0.411743 0.312847 5.954297 72 77 66
0.276992 1.381437 4.004166 122 119 112
0.481747 -0.221899 6.936815 30 40 23
0.388666 0.543055 5.544294 72 73 65
0.433633 0.252763 6.059498 72 75 63
0.290156 1.394365 3.984792 42 39 32
0.419969 0.421915 5.757400 78 78 69
0.507114 -0.225191 6.950926 42 49 30
0.440441 0.332138 5.930926 27 29 18
0.492760 -0.056025 6.620420 86 88 75
0.491273 -0.032630 6.586579 124 2 113
0.501433 -0.075896 6.667039 56 59 40
0.492181 0.004915 6.506590 14 20 2
0.530983 -0.243465 6.983434 67 75 51
0.463002 0.244704 6.079686 28 30 18
0.532277 -0.230381 6.959240 80 89 68
0.503779 -0.017730 6.579273 59 64 48
0.310856 1.381321 4.020589 64 61 53
0.323249 1.304928 4.143968 60 57 48
0.269572 1.693708 3.439997 2 4 5
0.393280 0.832485 5.014318 79 79 72
0.393280 0.832485 5.014318 79 79 72
0.466805 0.335219 5.919835 14 17 5
0.504346 0.101438 6.340303 62 65 48
0.450601 0.482711 5.648027 23 24 16
0.499864 0.159007 6.249885 25 27 14
0.536229 -0.077595 6.681402 71 76 54
0.518400 0.036375 6.453883 44 47 30
0.534147 -0.066959 6.648177 109 111 97
0.496870 0.187104 6.181644 18 20 7
0.503432 0.143466 6.259510 68 70 57
0.535949 -0.056070 6.647336 66 71 55
0.337371 1.285356 4.173101 100 94 88
0.527317 0.002274 6.517435 55 61 44
0.455101 0.498987 5.619694 73 74 67
0.567862 -0.238873 6.978759 34 44 20
0.518929 0.092213 6.368641 23 25 9
0.348116 1.236722 4.269969 63 61 53
0.541070 -0.036282 6.618352 57 62 46
0.486507 0.335583 5.917419 70 74 64
0.326538 1.398534 3.963648 119 116 110
0.419060 0.802638 5.070487 25 25 18
0.548319 -0.034837 6.603345 58 64 47
0.537371 0.055642 6.427795 48 53 43
0.572252 -0.166882 6.837477 66 72 51
0.545410 0.021622 6.499095 70 74 56
0.491630 0.375678 5.852667 64 66 54
0.491630 0.375678 5.852667 64 66 54
0.543666 0.036796 6.459633 37 39 26
0.349090 1.306232 4.136994 114 111 104
0.469788 0.535398 5.552917 57 57 48
0.540199 0.122776 6.315300 66 71 56
0.351525 1.325072 4.102485 63 59 50
0.440381 0.775881 5.113339 28 27 19
0.364607 1.295992 4.148918 49 47 40
0.612162 -0.242398 6.959644 52 59 36
0.571352 0.033331 6.480091 55 60 43
0.543389 0.216016 6.139077 35 37 24
0.312973 1.649293 3.522470 126 125 126
0.485608 0.600876 5.429846 69 69 59
0.629215 -0.262705 7.034693 41 50 29
0.379647 1.251659 4.243217 0 123 118
0.551461 0.220176 6.132436 98 100 89
0.513079 0.468494 5.679942 77 76 66
0.321079 1.628160 3.540725 79 82 84
0.449603 0.866909 4.944470 37 39 32
0.520155 0.461721 5.694282 109 109 100
0.564679 0.199087 6.167434 89 89 81
0.467445 0.796832 5.079326 68 69 61
0.325010 1.653772 3.496990 44 47 48
0.325010 1.653772 3.496990 44 47 48
0.381962 1.329936 4.101018 113 109 103
0.576939 0.181815 6.188359 77 81 68
0.521322 0.535891 5.554627 68 65 57
0.542249 0.434411 5.730729 61 63 53
0.584631 0.224443 6.134886 74 78 68
0.588349 0.201525 6.159199 114 117 111
0.536702 0.509692 5.603276 58 56 48
0.584385 0.237578 6.101255 70 71 62
0.404506 1.279627 4.207793 54 50 43
0.330839 1.694786 3.436970 4 5 7
0.599159 0.194806 6.177920 86 84 74
0.549152 0.484462 5.659137 22 22 14
0.605229 0.209456 6.158879 103 108 104
0.581871 0.349418 5.900726 27 31 22
0.581871 0.349418 5.900726 27 31 22
0.555917 0.498249 5.634676 39 39 31
0.410177 1.317537 4.124178 107 104 98
0.412467 1.306443 4.142102 36 33 26
0.412467 1.306443 4.142102 36 33 26
0.427076 1.233395 4.276913 59 57 50
0.349130 1.668102 3.487947 122 123 125
0.562845 0.504257 5.616267 106 106 97
0.369645 1.561169 3.686946 65 66 64
0.493515 0.907337 4.899168 26 22 11
0.531975 0.681991 5.274829 68 67 57
0.357350 1.638039 3.539601 19 21 22
0.571992 0.475876 5.656670 57 58 48
0.619836 0.245064 6.107225 68 72 61
0.351239 1.688764 3.454411 61 64 64
0.622441 0.231598 6.117775 82 83 75
0.425481 1.304609 4.178449 103 99 91
0.652606 0.077839 6.399487 69 73 58
0.618589 0.262972 6.061133 14 16 3
0.554712 0.624133 5.390537 66 66 56
0.698522 -0.097421 6.724874 34 40 23
0.582200 0.529998 5.572598 62 62 53
0.580275 0.562737 5.504811 96 95 86
0.749410 -0.284325 7.079374 56 64 41
0.649526 0.223706 6.135311 49 53 45
0.649526 0.223707 6.135311 49 53 45
0.586676 0.570942 5.492525 45 46 34
0.423392 1.410036 3.958308 0 126 120
0.629965 0.368079 5.872460 29 30 19
0.440293 1.332082 4.099033 124 121 112
0.633840 0.388770 5.832360 69 74 65
0.602397 0.555887 5.524155 81 81 75
0.660964 0.278291 6.035310 24 25 13
0.530597 0.927898 4.836264 75 72 64
0.579545 0.699071 5.267652 71 72 63
0.452835 1.326674 4.109106 107 103 95
0.568063 0.765199 5.144686 30 30 21
0.568064 0.765200 5.144686 30 30 21
0.569647 0.751560 5.152353 75 76 68
0.565605 0.780476 5.115344 75 77 67
0.499393 1.101297 4.514979 72 69 59
0.609978 0.561731 5.507651 60 59 51
0.531161 0.958005 4.790278 76 76 68
0.587415 0.689418 5.284893 15 15 6
0.660669 0.334545 5.940893 73 74 63
0.654044 0.376845 5.859119 17 18 7
0.782479 -0.238450 6.988541 93 99 80
0.708681 0.122950 6.320754 26 30 14
0.622441 0.577397 5.498211 92 90 83
0.798958 -0.244179 7.004120 40 45 28
0.601381 0.696333 5.269334 24 25 18
0.453744 1.421825 3.941500 127 126 120
0.453744 1.421825 3.941500 127 126 120
0.517224 1.128446 4.471587 67 65 55
0.602300 0.729470 5.197150 74 75 68
0.814730 -0.247162 7.008708 118 124 105
0.822249 -0.261231 7.033436 57 63 42
0.811335 -0.211313 6.933482 106 114 96
0.811335 -0.211313 6.933482 106 114 96
0.529475 1.113456 4.516630 102 98 90
0.681177 0.396961 5.804891 74 76 66
0.681177 0.396961 5.804891 74 76 66
0.686376 0.387737 5.846158 30 32 21
0.445148 1.506444 3.784844 64 65 59
0.621460 0.689421 5.283379 76 76 68
0.821928 -0.228418 6.984507 76 82 65
0.700972 0.336357 5.934523 14 16 4
0.832542 -0.242247 7.001669 94 101 84
0.740501 0.194578 6.193530 20 22 9
0.740501 0.194577 6.193530 20 22 9
0.621912 0.739093 5.190347 28 26 18
0.691669 0.427376 5.760851 15 18 9
0.846997 -0.249334 7.019196 54 60 42
0.538928 1.150643 4.438714 68 64 56
0.638532 0.711080 5.242359 22 19 11
0.635649 0.733617 5.211575 74 72 63
0.617629 0.835079 5.006004 69 71 64
0.617870 0.834332 5.003077 66 69 61
0.685613 0.554077 5.530737 45 43 32
0.712036 0.439772 5.736860 74 76 66
0.660614 0.673411 5.320956 72 76 69
0.631664 0.797912 5.085123 73 73 63
0.872607 -0.245363 7.012718 44 50 31
0.589114 0.988917 4.731037 74 73 64
0.630705 0.812662 5.059576 112 109 102
0.661025 0.685922 5.294620 35 35 28
0.566577 1.107572 4.522846 5 4 126
0.781399 0.171739 6.231902 66 70 55
0.558716 1.140639 4.450286 95 94 90
0.702101 0.539574 5.565425 70 67 58
0.653355 0.748778 5.170632 78 77 70
0.702737 0.553660 5.535383 74 72 67
0.704129 0.563830 5.521737 47 46 37
0.484870 1.500657 3.799061 115 113 109
0.666342 0.728499 5.216153 65 65 58
0.685667 0.655286 5.357143 21 21 13
0.711841 0.544419 5.552865 68 64 57
0.572342 1.131423 4.456086 38 37 32
0.685280 0.678550 5.310175 83 88 79
0.647568 0.836708 5.014422 61 59 52
0.900274 -0.214712 6.956883 120 127 105
0.580792 1.123754 4.483374 118 115 112
0.809624 0.172404 6.234693 14 16 3
0.767210 0.361215 5.894057 25 27 16
0.493408 1.506519 3.780399 126 125 122
0.688208 0.703984 5.261372 29 27 19
0.726030 0.545566 5.546017 93 89 82
0.726030 0.545566 5.546017 93 89 82
0.582113 1.147130 4.446013 66 66 58
0.660846 0.825469 5.040136 109 107 101
0.818303 0.185046 6.209625 69 71 60
0.679493 0.762991 5.146777 82 84 76
0.712183 0.637040 5.391890 74 75 65
0.665322 0.833621 5.019143 102 101 95
0.732932 0.559824 5.522185 88 85 77
0.732932 0.559824 5.522185 88 85 77
0.737573 0.553075 5.535151 94 90 84
0.737574 0.553075 5.535151 94 90 84
0.498722 1.544891 3.725599 68 69 67
0.599958 1.127777 4.479051 60 60 53
0.907745 -0.097992 6.736442 72 78 61
0.682693 0.824140 5.031905 1 0 120
0.814443 0.312338 5.984873 21 23 12
0.741036 0.603913 5.438325 65 65 55
0.768375 0.518869 5.615960 63 66 59
0.758757 0.556316 5.532188 62 60 52
0.803293 0.425682 5.789154 74 77 67
0.530250 1.501145 3.795254 120 116 115
0.986170 -0.259592 7.042065 24 29 6
0.746044 0.679754 5.312305 72 69 60
0.904533 0.068523 6.426370 65 68 52
0.666899 0.994657 4.723692 84 85 78
0.666898 0.994657 4.723692 84 85 78
0.739617 0.711570 5.233318 23 19 10
0.739617 0.711570 5.233318 23 19 10
0.764406 0.635951 5.389397 69 67 58
0.546214 1.514952 3.782374 63 66 63
0.755599 0.736871 5.204090 65 65 55
0.801268 0.593512 5.465273 16 15 6
0.551767 1.527781 3.755853 109 107 106
0.551767 1.527781 3.755853 109 107 106
0.551767 1.527781 3.755853 109 107 106
0.786795 0.657829 5.337816 16 16 8
0.801680 0.623306 5.411687 67 67 57
1.069412 -0.339965 7.201387 63 70 49
0.833178 0.537186 5.567736 71 71 60
1.022797 -0.147085 6.832596 68 75 60
0.702771 1.021551 4.678433 109 105 99
0.802050 0.667355 5.335751 68 69 61
0.711897 1.013269 4.690164 61 59 54
0.720553 0.987772 4.742324 81 83 74
0.811382 0.682039 5.312719 73 74 66
0.649500 1.262329 4.243003 40 37 30
0.801065 0.734826 5.213383 71 71 63
0.830546 0.642625 5.387094 19 17 8
0.950008 0.219887 6.156917 7 9 125
0.834352 0.629216 5.406901 72 72 61
0.736430 0.993758 4.733224 116 114 107
0.730453 1.014552 4.693769 104 101 93
1.057421 -0.106589 6.761345 70 74 62
0.822961 0.703412 5.259156 62 60 51
0.861538 0.583046 5.492174 65 64 53
0.856789 0.607056 5.447165 73 73 65
0.860551 0.624616 5.424228 24 23 14
0.748828 1.005279 4.708569 120 120 113
0.761689 0.995912 4.731166 77 77 69
0.756552 1.014478 4.689741 45 43 36
1.126491 -0.216775 6.971327 57 63 43
0.850465 0.706511 5.259731 114 110 103
0.846358 0.732843 5.220050 91 88 83
0.643252 1.415854 3.964059 115 114 110
0.755831 1.039848 4.652929 103 100 94
0.835660 0.779340 5.123568 71 70 63
0.728346 1.134954 4.461807 54 52 45
0.732020 1.128554 4.482666 2 2 122
1.201479 -0.425761 7.352992 44 48 25
0.845206 0.763653 5.159518 64 61 53
0.771287 1.012024 4.697526 109 105 99
1.103155 -0.076950 6.718683 72 75 63
1.152249 -0.238620 7.015708 10 15 120
0.762992 1.047857 4.641217 52 50 43
0.707225 1.235018 4.298635 24 20 11
0.666256 1.370242 4.045850 52 50 44
1.006007 0.249516 6.105354 28 32 19
0.894982 0.613535 5.428439 67 70 62
0.894982 0.613536 5.428439 67 70 62
0.738637 1.144416 4.460448 94 91 84
0.776541 1.020178 4.680442 123 120 114
0.776541 1.020178 4.680442 123 120 114
0.784693 0.998234 4.728674 100 97 90
0.873143 0.745121 5.210223 100 100 94
0.666158 1.414832 3.972214 61 61 55
0.752775 1.132986 4.473813 48 46 40
0.798575 0.992587 4.727040 53 51 44
1.185027 -0.221469 6.989634 63 67 49
0.750300 1.158217 4.420025 68 67 62
0.878078 0.754173 5.172973 72 72 64
0.926255 0.610833 5.448873 76 81 74
0.875657 0.788595 5.118081 61 62 54
0.875657 0.788595 5.118081 61 62 54
0.882131 0.771021 5.143105 94 91 83
0.683374 1.401811 3.980473 127 124 117
0.901087 0.717353 5.248100 119 117 111
0.799010 1.040715 4.649959 62 60 52
0.951941 0.561491 5.534837 65 70 61
0.803673 1.023948 4.672520 99 95 89
0.772730 1.139463 4.478315 102 98 92
0.981663 0.493344 5.659005 31 33 23
1.031394 0.348214 5.944433 14 15 4
1.061184 0.260883 6.101606 18 19 7
0.980522 0.513703 5.625289 73 75 66
0.953029 0.602475 5.461904 76 78 73
0.953029 0.602475 5.461904 76 78 73
0.901268 0.770140 5.162388 70 71 65
0.975058 0.534999 5.579649 73 76 68
0.788386 1.128007 4.492043 76 75 68
0.919023 0.724736 5.233630 101 97 91
1.310528 -0.457643 7.454696 56 65 45
0.904414 0.767344 5.141921 69 70 64
0.954163 0.619926 5.423819 28 29 21
1.001489 0.491150 5.674490 70 72 62
0.969663 0.586546 5.491530 21 22 16
1.017146 0.463534 5.721415 7 7 125
0.972299 0.611978 5.450223 73 73 67
1.004139 0.533099 5.593021 15 16 8
1.004139 0.533099 5.593021 15 16 8
1.008976 0.519494 5.618446 74 76 67
0.981176 0.603902 5.456411 30 33 27
0.926115 0.788506 5.124545 30 31 22
0.926226 0.787220 5.118201 30 30 22
1.041975 0.436801 5.754509 19 19 9
0.937766 0.769510 5.160814 70 70 63
0.993482 0.612480 5.439208 70 72 67
1.355725 -0.434046 7.393000 21 29 7
1.355725 -0.434046 7.393000 21 29 7
1.022508 0.536773 5.568776 22 22 15
1.018629 0.570694 5.532988 68 73 64
1.377215 -0.467339 7.460905 51 59 41
1.041456 0.497007 5.640270 62 62 54
1.104688 0.323499 5.969758 22 22 10
1.009452 0.615794 5.444573 23 27 21
1.108444 0.335185 5.957664 70 70 58
1.405788 -0.509242 7.539834 95 104 68
1.368417 -0.406729 7.323820 63 70 49
0.965727 0.770345 5.159642 74 76 68
1.087210 0.429227 5.788609 17 17 7
1.035828 0.596241 5.488401 72 74 69
1.035828 0.596241 5.488401 72 74 69
1.042923 0.583138 5.510269 25 24 16
1.042923 0.583138 5.510269 25 24 16
1.368797 -0.354185 7.229206 0 5 114
1.384321 -0.334802 7.225379 58 61 41
1.083948 0.504375 5.650113 7 6 125
1.028624 0.672262 5.342289 70 70 62
1.028623 0.672262 5.342289 70 70 62
1.448163 -0.491365 7.510526 36 42 18
1.042317 0.636623 5.396971 79 81 77
1.086953 0.519071 5.621647 86 86 80
1.086953 0.519071 5.621647 86 86 80
1.177340 0.276278 6.080118 76 81 72
1.116768 0.438751 5.765695 59 59 50
1.177381 0.292055 6.051749 26 28 16
1.309010 -0.064878 6.716550 7 9 120
1.263389 0.064142 6.469222 72 75 64
1.427177 -0.383771 7.302408 111 117 98
1.095423 0.532832 5.592905 90 88 84
1.095423 0.532832 5.592905 90 88 84
1.443804 -0.417522 7.367226 55 58 40
1.054941 0.685932 5.323118 31 28 21
0.814097 1.343628 4.105629 100 96 92
0.814097 1.343628 4.105629 100 96 92
1.104225 0.549291 5.564932 91 93 87
1.430254 -0.312777 7.189154 44 47 25
1.442981 -0.340388 7.240894 106 110 93
1.103704 0.577212 5.517067 13 15 6
1.290351 0.086139 6.440373 28 30 19
0.732730 1.594523 3.642409 75 80 80
1.189726 0.373328 5.905262 80 82 72
1.105154 0.606011 5.466691 28 29 23
1.129573 0.547707 5.584879 96 92 90
1.054418 0.742808 5.204956 75 76 69
1.129622 0.553421 5.570736 55 54 47
1.136789 0.541174 5.579769 85 82 75
1.473209 -0.334419 7.221987 54 57 39
1.217590 0.338603 5.966252 20 18 6
1.225487 0.314584 6.001517 78 80 69
1.007495 0.910079 4.902616 29 26 17
1.097350 0.675853 5.336132 71 72 66
1.156079 0.536030 5.610697 24 23 14
1.501249 -0.359610 7.280122 118 121 102
1.281648 0.207152 6.208663 73 74 64
1.162272 0.524317 5.627743 121 118 110
1.088664 0.725385 5.270991 31 31 23
1.141464 0.582827 5.519550 6 6 127
1.148673 0.560366 5.552082 84 82 76
1.365236 0.012397 6.584363 56 57 43
1.450268 -0.205711 6.993264 56 59 39
1.318529 0.137070 6.347900 24 27 17
1.318529 0.137070 6.347900 24 27 17
1.204509 0.440893 5.787327 23 23 17
0.855804 1.352005 4.100201 62 61 54
1.278373 0.252825 6.124993 16 17 7
1.169928 0.537739 5.596403 96 93 85
0.703962 1.748013 3.365781 77 81 82
0.936179 1.150434 4.456564 64 63 58
0.901746 1.242900 4.284843 12 9 2
0.901746 1.242900 4.284843 12 9 2
1.198145 0.492015 5.690967 9 9 1
0.852750 1.378169 4.045698 71 72 68
1.457719 -0.158941 6.906946 59 62 44
0.910034 1.228309 4.311124 72 70 64
1.382916 0.028985 6.551699 46 47 38
1.377069 0.043964 6.497960 116 117 106
1.209400 0.481421 5.704120 80 82 74
1.058228 0.861170 4.989310 74 77 69
0.951679 1.141510 4.485245 36 35 30
1.133194 0.676789 5.333155 19 18 12
0.904478 1.263120 4.255297 63 60 53
1.130811 0.691226 5.311039 78 79 71
1.178995 0.581607 5.517972 72 73 65
0.924427 1.234346 4.307823 121 119 112
1.257035 0.397793 5.855741 28 28 19
1.234544 0.452518 5.749589 72 73 66
0.960114 1.149653 4.463167 100 99 96
0.956235 1.164848 4.442415 56 55 50
1.418292 0.007876 6.588486 50 51 38
1.649035 -0.580754 7.655531 111 121 78
1.115139 0.771863 5.175543 76 77 71
1.277321 0.371969 5.923429 15 13 5
1.277321 0.371969 5.923429 15 13 5
1.403149 0.065016 6.487750 124 125 115
1.190946 0.596494 5.474949 70 71 64
0.929120 1.255572 4.268407 87 84 80
1.305708 0.320164 5.998580 74 77 68
1.305707 0.320164 5.998580 74 77 68
1.240688 0.483144 5.698880 73 75 68
1.176536 0.658767 5.400996 73 75 68
1.240032 0.495037 5.688744 20 21 12
0.983029 1.132280 4.493630 119 117 112
1.394240 0.139367 6.371834 64 68 60
0.945104 1.235941 4.309603 44 43 37
0.931049 1.269382 4.244298 51 48 42
0.971013 1.168259 4.426311 4 3 127
1.268687 0.444149 5.783308 13 12 0
1.259985 0.461977 5.743105 78 79 70
1.443722 0.020559 6.575639 61 62 49
1.187462 0.642488 5.402005 72 71 66
0.853576 1.465747 3.882024 29 29 27
1.280760 0.425955 5.816111 74 75 66
1.401967 0.132116 6.365785 35 39 31
0.953307 1.224152 4.327628 7 6 0
0.892441 1.385204 4.036506 73 74 73
1.262275 0.487674 5.704354 78 80 75
0.991587 1.145972 4.469759 96 95 91
1.294463 0.422580 5.824486 23 24 16
0.987875 1.160164 4.442123 113 112 109
1.213435 0.613535 5.452686 85 83 81
1.201417 0.649453 5.394936 76 76 71
1.221991 0.597682 5.485921 82 82 73
1.120266 0.841285 5.028893 77 77 69
0.952586 1.255093 4.275887 31 27 24
1.458210 0.034310 6.544492 95 97 85
1.171702 0.723220 5.252335 78 78 72
1.456170 0.049334 6.524778 126 126 117
1.006981 1.130412 4.498470 113 112 108
0.998615 1.155507 4.460276 36 34 33
1.290610 0.449407 5.761786 22 21 11
1.576307 -0.208548 7.000432 59 61 45
1.010260 1.140690 4.480916 50 50 44
1.472239 0.048510 6.524067 57 59 48
1.281791 0.496901 5.679232 82 82 74
0.964606 1.247286 4.269849 104 100 98
0.959845 1.262526 4.245064 112 108 104
1.221858 0.645873 5.401329 64 68 63
1.553933 -0.128570 6.859367 19 21 5
1.472445 0.061625 6.498583 81 82 70
1.235511 0.621782 5.451398 83 86 80
1.347616 0.358360 5.936972 23 24 16
1.468703 0.082657 6.467568 69 70 60
1.388748 0.267652 6.109517 27 26 15
1.318083 0.437876 5.794286 21 22 14
1.505042 -0.001342 6.615614 76 77 66
1.583696 -0.182405 6.953158 2 3 118
1.291787 0.504946 5.658223 19 22 14
1.413652 0.233926 6.189697 21 19 9
1.272052 0.554856 5.566044 70 71 64
1.346918 0.385690 5.878063 23 23 16
1.009275 1.210677 4.392558 67 70 64
1.036191 1.129967 4.503534 69 71 66
1.378614 0.331457 5.984165 27 27 20
1.300929 0.522671 5.646669 74 77 69
1.256338 0.628431 5.441597 98 98 92
1.352238 0.409014 5.852627 82 85 78
1.266921 0.609102 5.479105 68 70 63
0.884228 1.507956 3.823257 13 13 15
1.025657 1.173037 4.426429 0 127 122
1.273174 0.622055 5.453337 7 7 2
1.234207 0.707852 5.280411 21 20 12
1.221016 0.742114 5.223142 72 72 65
1.726193 -0.403935 7.383681 6 7 122
1.015119 1.230664 4.317982 71 71 68
1.314384 0.560679 5.558660 32 33 25
0.885006 1.552977 3.742328 39 41 41
0.885006 1.552977 3.742328 39 41 41
0.883319 1.559932 3.726466 118 118 118
1.271099 0.674182 5.360793 81 81 74
0.893209 1.555734 3.743094 17 17 18
0.893209 1.555734 3.743094 17 17 18
0.893209 1.555734 3.743094 17 17 18
1.783739 -0.447218 7.463855 71 72 61
1.305933 0.626637 5.448182 65 70 65
1.482746 0.230901 6.183977 66 65 55
1.241837 0.775174 5.169525 73 76 69
1.314026 0.615902 5.462680 80 84 78
1.259566 0.734983 5.235639 68 68 62
1.405977 0.416967 5.831680 35 38 30
1.670509 -0.138940 6.900716 10 11 127
1.512364 0.205599 6.219695 70 72 62
0.912611 1.548092 3.750047 43 44 45
1.316288 0.643211 5.404344 33 34 27
1.453890 0.342056 5.968729 70 69 61
1.690542 -0.146471 6.901846 69 70 59
1.402365 0.483617 5.716475 79 81 70
1.357197 0.594559 5.509819 69 66 57
1.471920 0.350964 5.974036 68 68 59
1.566779 0.149750 6.339068 77 78 70
1.403735 0.495752 5.678490 26 26 19
1.861094 -0.464206 7.507873 2 2 117
1.363181 0.612418 5.485575 29 26 17
1.409862 0.513447 5.673038 79 82 75
1.487798 0.361247 5.957507 26 27 18
1.547479 0.230613 6.189636 19 18 9
1.702306 -0.082418 6.803509 64 65 53
1.538103 0.265207 6.130353 66 66 57
1.530197 0.293442 6.087291 68 70 62
1.071682 1.262400 4.259692 39 38 33
1.331048 0.711509 5.284955 78 80 76
1.367186 0.661577 5.391096 75 80 74
0.965551 1.521570 3.804310 70 74 73
1.383309 0.635128 5.441275 25 24 16
1.552155 0.278123 6.095290 23 25 16
1.581593 0.228458 6.210267 76 75 67
1.379532 0.648296 5.415877 71 73 65
1.312765 0.787602 5.148487 69 69 61
1.851940 -0.328015 7.260405 61 59 50
1.579432 0.244108 6.185507 21 21 12
1.373565 0.675931 5.379262 82 85 79
1.357198 0.696916 5.310394 78 81 75
0.919395 1.638157 3.593999 11 11 11
1.581742 0.258886 6.154612 66 67 58
1.564285 0.293458 6.075147 76 77 70
1.607732 0.200813 6.233855 67 69 60
1.599722 0.236199 6.198188 72 71 64
1.599722 0.236200 6.198188 72 71 64
0.908525 1.678781 3.513047 62 65 66
1.753470 -0.075018 6.774877 27 26 15
1.611377 0.222061 6.207639 32 32 25
1.119990 1.236322 4.312379 27 23 14
1.379596 0.705610 5.299576 10 9 3
0.908676 1.691141 3.480059 127 0 1
1.517250 0.441769 5.795985 76 79 71
1.020011 1.481184 3.878374 5 5 4
1.637285 0.223141 6.222550 83 83 76
1.661724 0.176809 6.311044 21 20 10
1.601197 0.299816 6.076533 79 81 73
1.568443 0.366948 5.951152 32 33 24
1.874737 -0.254302 7.095652 12 11 1
1.874737 -0.254302 7.095652 12 11 1
0.946669 1.639298 3.581877 69 69 68
1.926080 -0.337597 7.286002 7 6 124
1.926080 -0.337597 7.286002 7 6 124
1.506987 0.491529 5.696389 28 25 16
1.514146 0.504578 5.716181 69 67 59
1.034811 1.464570 3.903950 70 71 70
1.522127 0.480408 5.731758 82 84 76
0.949586 1.668342 3.540953 11 13 13
1.516796 0.529252 5.636799 31 31 24
1.707487 0.159071 6.344987 72 70 61
1.406806 0.748760 5.222289 79 81 76
1.198570 1.179073 4.430670 79 84 81
1.185145 1.207871 4.378508 73 76 71
1.185145 1.207871 4.378508 73 76 71
1.551378 0.480920 5.731539 81 82 74
1.652455 0.297456 6.091661 80 82 76
1.439619 0.709106 5.282767 32 29 20
1.429335 0.755370 5.218401 25 24 16
2.210507 -0.769738 8.059116 127 125 113
1.527994 0.569219 5.569907 68 69 59
1.305473 1.015448 4.735778 73 74 67
1.986849 -0.280773 7.172929 123 122 112
1.986850 -0.280772 7.172929 123 122 112
1.434435 0.779500 5.174911 64 63 56
1.629265 0.424692 5.846522 78 80 73
1.488479 0.697104 5.328498 15 14 7
1.437370 0.800050 5.141597 70 70 63
1.341354 0.983554 4.789851 80 84 77
1.491681 0.706319 5.310979 72 71 65
1.018223 1.632183 3.622522 20 18 17
1.628207 0.457447 5.771223 76 77 68
1.692459 0.343823 5.994672 80 81 74
1.408232 0.887023 4.970602 85 85 81
1.632251 0.478186 5.750075 80 81 72
1.452289 0.819054 5.102826 66 66 60
1.161030 1.387368 4.055535 33 34 30
1.161030 1.387368 4.055535 33 34 30
1.463669 0.818783 5.095951 54 54 47
1.537722 0.715928 5.307361 21 19 13
2.082729 -0.270262 7.165646 63 63 53
1.338164 1.101571 4.582703 78 82 77
1.588011 0.647950 5.435829 66 65 57
1.050980 1.642778 3.595385 121 121 122
1.050980 1.642778 3.595385 121 121 122
1.647306 0.535432 5.634314 80 81 72
1.630661 0.578533 5.571049 22 19 10
1.630661 0.578532 5.571049 22 19 10
1.782240 0.318403 6.075456 33 34 26
1.717932 0.451139 5.814900 76 76 68
1.579639 0.694984 5.337261 77 76 68
1.570032 0.718436 5.302696 78 75 68
1.592999 0.667795 5.380242 85 88 81
1.707067 0.472125 5.754754 75 75 67
1.679978 0.527540 5.657782 31 33 24
1.678881 0.539822 5.648755 86 87 79
1.080851 1.624090 3.635158 71 75 75
1.843583 0.243334 6.188840 78 75 65
1.621663 0.651850 5.423022 86 87 82
1.076552 1.641475 3.595406 49 48 51
1.898541 0.169238 6.338266 74 73 62
1.075080 1.655119 3.588355 115 115 117
1.555918 0.798545 5.174106 67 66 59
1.789764 0.386482 5.944468 76 77 70
1.746172 0.462393 5.773349 84 84 78
1.643371 0.660741 5.416793 83 84 78
1.677096 0.608975 5.515088 71 71 63
1.090355 1.657338 3.559565 125 126 1
1.090355 1.657338 3.559565 125 126 1
1.571478 0.820096 5.110396 20 19 13
1.687267 0.632134 5.482722 30 31 23
1.587706 0.802045 5.157380 65 64 58
1.736032 0.588126 5.552148 75 75 67
1.703399 0.642203 5.447455 79 80 75
1.794321 0.503298 5.714123 32 32 25
1.103789 1.691866 3.513353 16 17 18
3.049208 -1.631859 9.694125 8 127 112
2.601722 -0.842427 8.260688 24 24 13
1.817930 0.480269 5.743587 81 83 77
2.028347 0.139478 6.401876 74 71 61
1.605450 0.860945 5.039688 36 35 29
1.755450 0.623284 5.500481 38 39 32
2.058264 0.123652 6.442512 15 12 2
1.746527 0.636365 5.451876 77 79 74
2.645742 -0.831249 8.250105 24 23 12
1.563412 0.965102 4.853700 75 74 68
1.170166 1.640761 3.620635 82 88 88
1.983951 0.308158 6.107837 70 67 58
1.152772 1.679021 3.539183 121 120 123
2.195415 -0.030345 6.739607 19 16 6
1.788457 0.633353 5.478448 74 74 67
1.433851 1.221261 4.378419 75 80 77
1.933030 0.419612 5.901384 77 77 70
1.655091 0.874263 5.019417 79 78 71
1.718047 0.795563 5.177206 79 80 75
1.163233 1.699619 3.499690 124 125 126
1.181796 1.689244 3.530517 41 42 44
1.181796 1.689244 3.530517 41 42 44
2.230056 0.018097 6.649832 80 80 71
1.739757 0.784682 5.185911 27 26 21
1.181455 1.709452 3.494033 47 50 50
2.238555 0.053857 6.581937 20 19 10
1.867958 0.640248 5.484480 109 106 99
2.058105 0.336598 6.040640 70 69 61
2.545751 -0.420473 7.471709 123 121 110
2.545751 -0.420473 7.471709 123 121 110
1.849969 0.663041 5.425247 69 70 62
1.748649 0.836118 5.111079 41 42 38
1.885555 0.628032 5.507944 71 67 59
2.473199 -0.265762 7.187038 70 71 63
2.125461 0.266048 6.170460 70 67 58
1.857767 0.681398 5.389846 30 30 22
2.277025 0.049722 6.599268 111 109 102
1.202455 1.710240 3.478719 1 2 5
1.881306 0.659679 5.435715 100 100 93
2.061284 0.403449 5.933621 75 75 68
1.897182 0.651186 5.457995 63 62 57
1.239067 1.667649 3.556517 63 67 67
2.269660 0.098325 6.514194 69 66 59
2.218355 0.166030 6.366513 77 74 67
2.637436 -0.475219 7.568649 59 55 45
2.075405 0.392772 5.955609 33 32 25
1.238637 1.665256 3.550643 64 67 67
1.744335 0.899952 4.982847 75 75 69
1.893823 0.674866 5.409166 87 86 81
1.899998 0.654485 5.418142 115 112 108
1.930325 0.629660 5.498455 84 83 75
1.890098 0.702246 5.370772 78 82 81
2.119101 0.355305 6.019787 73 73 67
1.674399 1.025219 4.750835 77 79 74
2.603201 -0.368540 7.356881 125 121 114
1.637723 1.097696 4.623956 77 80 77
1.927462 0.661820 5.434108 91 87 85
2.154268 0.318218 6.066222 24 21 14
2.573459 -0.286107 7.239937 113 112 103
1.919472 0.677496 5.399960 63 64 57
2.607294 -0.343189 7.327965 48 45 37
2.337591 0.082103 6.538942 121 118 114
1.966206 0.646684 5.468385 5 5 0
1.966206 0.646684 5.468385 5 5 0
2.365066 0.061170 6.575292 71 71 64
1.997741 0.599607 5.544188 84 88 83
1.975247 0.655482 5.446138 122 122 117
2.188012 0.368158 5.992988 84 82 75
1.915041 0.771013 5.232961 39 42 40
1.796320 0.965874 4.878300 21 20 16
1.792697 0.982114 4.848411 73 76 73
1.907179 0.824826 5.148900 31 30 25
2.219852 0.397281 5.950080 32 30 26
2.220203 0.412140 5.918262 91 90 87
2.231081 0.393517 5.944314 121 120 115
2.243765 0.385267 5.969429 72 71 65
1.862607 0.926448 4.948495 32 33 29
1.957995 0.800934 5.191621 25 22 16
1.812178 1.011662 4.803580 16 15 9
2.214704 0.447681 5.867847 63 64 60
2.035804 0.697773 5.382089 74 78 79
2.251697 0.401849 5.952750 109 109 103
1.920063 0.868163 5.069183 71 70 65
1.941273 0.843409 5.113527 72 72 65
1.872176 0.938132 4.923138 86 87 82
1.978310 0.806090 5.173468 17 14 8
1.978310 0.806090 5.173468 17 14 8
1.841940 1.010889 4.807041 48 48 44
2.519894 0.064894 6.571964 79 78 72
1.722414 1.197883 4.464704 84 86 84
1.815609 1.077417 4.682370 37 37 32
2.372125 0.297029 6.107918 86 85 80
1.850025 1.035317 4.762558 6 7 2
2.391509 0.276840 6.151948 18 17 10
2.476580 0.182877 6.365741 73 73 67
2.335800 0.400962 5.975253 28 31 25
1.897532 0.991319 4.850091 5 4 1
2.573794 0.064432 6.565672 78 78 71
2.013892 0.875562 5.093517 21 18 14
1.914693 1.001827 4.834525 122 121 119
2.481944 0.242077 6.253413 25 23 16
2.481944 0.242077 6.253413 25 23 16
2.000648 0.897324 5.014252 80 81 73
1.838549 1.134258 4.606591 82 85 85
2.017177 0.887948 5.044253 90 86 84
2.524774 0.219953 6.298135 66 64 58
2.084373 0.808399 5.195754 31 34 28
2.507582 0.253006 6.237967 20 19 14
2.098886 0.802309 5.215550 79 80 75
1.863643 1.129323 4.624057 109 107 105
1.835913 1.160137 4.541087 81 85 85
1.939343 1.030247 4.788972 71 71 70
2.600335 0.155641 6.414803 78 79 73
2.082674 0.847214 5.135166 75 74 69
2.332196 0.526398 5.733908 35 37 33
2.036999 0.929946 4.980634 81 86 86
1.895265 1.115227 4.632768 48 47 41
1.891712 1.128670 4.607726 95 93 93
2.099937 0.856865 5.114545 82 84 81
2.944084 -0.247437 7.159661 70 68 56
1.971537 1.037593 4.772954 73 79 78
1.874320 1.170906 4.523721 82 88 89
2.157678 0.810963 5.187255 24 24 18
2.665660 0.176243 6.385909 70 69 63
2.316096 0.613389 5.546177 73 74 72
1.919203 1.139978 4.590613 12 11 5
2.255643 0.720648 5.368113 41 42 37
2.743774 0.099720 6.509586 37 38 33
2.743774 0.099720 6.509586 37 38 33
2.099895 0.948095 4.964926 81 84 82
2.985665 -0.172791 7.038717 72 72 65
2.732635 0.157380 6.421321 20 21 15
2.156220 0.892630 5.058781 30 31 26
1.760496 1.406282 4.104827 74 76 75
2.984128 -0.123106 6.936682 10 9 3
2.354937 0.659405 5.473579 82 83 78
2.354937 0.659405 5.473579 82 83 78
2.425086 0.588853 5.632755 84 85 81
1.738687 1.448059 4.032505 32 33 33
4.338172 -1.750866 9.973998 111 103 86
2.986391 -0.078307 6.863186 64 65 58
2.427750 0.619550 5.562901 80 82 79
2.274763 0.817731 5.195086 71 69 64
2.467518 0.584283 5.633703 75 75 72
3.059231 -0.135970 6.980446 105 101 94
1.718892 1.500084 3.914969 33 31 30
2.127814 1.013303 4.840435 85 87 83
2.190701 0.934975 4.972131 74 74 69
2.501988 0.580614 5.643803 76 76 73
2.215186 0.949836 4.976437 75 74 69
2.298016 0.847613 5.140661 83 83 78
2.480430 0.635589 5.545257 76 76 73
3.028586 -0.011563 6.739996 30 29 21
2.430171 0.716400 5.395061 72 73 68
1.672874 1.627612 3.689896 6 7 8
2.432063 0.746517 5.335318 81 84 78
3.056518 0.059004 6.610729 78 79 74
1.922911 1.388535 4.130544 63 65 63
2.133523 1.172270 4.568779 76 81 80
3.216222 -0.073630 6.867632 30 29 22
2.553876 0.697604 5.453284 81 83 80
2.539080 0.713967 5.416925 26 29 27
2.539080 0.713967 5.416925 26 29 27
1.968625 1.367426 4.192640 60 62 60
2.572434 0.678814 5.468785 28 29 25
2.572434 0.678814 5.468785 28 29 25
2.348492 0.945154 4.989752 79 80 74
2.600841 0.664616 5.505430 71 71 65
3.174504 -0.000780 6.719518 71 70 64
2.570095 0.710120 5.421493 34 36 34
1.800522 1.580477 3.788994 29 30 31
2.831848 0.416700 5.945027 66 69 64
2.009406 1.357355 4.218228 55 57 56
1.993357 1.364472 4.180023 1 2 3
1.993357 1.364472 4.180023 1 2 3
2.177112 1.172904 4.558330 44 44 43
2.177112 1.172904 4.558330 44 44 43
2.844666 0.408156 5.955280 82 85 80
2.410002 0.910220 5.045084 77 77 73
2.541523 0.768701 5.316066 38 40 36
3.217942 -0.017647 6.729566 18 17 9
2.178636 1.183659 4.549214 94 96 94
1.998821 1.379373 4.167087 1 2 2
2.804677 0.492390 5.844063 80 80 77
2.914263 0.346363 6.058596 67 70 67
2.184813 1.186366 4.537278 58 59 55
2.219811 1.153742 4.607335 109 108 109
2.567048 0.765173 5.316667 85 90 87
2.209470 1.171521 4.572440 49 50 47
2.786058 0.544817 5.749719 80 80 77
3.239792 0.030339 6.664772 75 75 69
2.731795 0.608361 5.609113 72 71 68
2.802186 0.547805 5.733719 75 76 72
2.399510 0.989393 4.895963 74 74 69
2.257411 1.148286 4.603333 62 62 60
2.045912 1.379958 4.171482 113 114 114
2.766825 0.602245 5.630646 111 109 105
2.892167 0.463829 5.876154 61 61 57
2.235869 1.184351 4.538904 125 124 123
2.483409 0.922981 5.035692 81 81 78
2.934448 0.431333 5.933484 20 19 14
2.752274 0.633415 5.563947 93 93 92
2.655198 0.757687 5.359319 25 25 22
2.252362 1.193039 4.541558 12 12 9
2.766706 0.622619 5.568585 127 125 124
2.547773 0.869293 5.127725 19 19 16
2.659637 0.754328 5.329830 24 24 21
2.659637 0.754328 5.329830 24 24 21
3.598200 -0.253984 7.208301 74 73 69
2.381901 1.067086 4.767268 23 23 19
3.776289 -0.442499 7.535195 4 1 122
3.907838 -0.604933 7.783717 122 118 110
2.561217 0.877826 5.096831 72 73 69
2.953028 0.473924 5.874666 102 102 98
2.385143 1.077756 4.735767 86 89 88
2.917642 0.524651 5.781173 63 63 60
2.656114 0.815928 5.255954 84 88 86
2.335104 1.152500 4.618787 88 91 89
2.289455 1.202304 4.519215 74 76 73
2.957527 0.497222 5.831877 106 106 104
2.630861 0.841183 5.184816 110 107 105
2.966684 0.489634 5.836171 56 55 52
3.423228 -0.010820 6.729409 20 16 10
3.196192 0.273706 6.254353 114 113 111
3.490688 -0.056772 6.823176 77 77 73
3.490688 -0.056773 6.823175 77 77 73
3.040967 0.424298 5.942902 75 75 69
3.417534 0.044335 6.668721 62 64 62
3.417534 0.044335 6.668721 62 64 62
3.293315 0.164434 6.424609 19 20 16
2.644330 0.860526 5.152179 30 29 25
2.637894 0.872376 5.139171 91 90 86
3.206851 0.263939 6.247242 66 63 61
3.176576 0.299605 6.187247 101 100 97
3.176576 0.299605 6.187247 101 100 97
2.743007 0.772475 5.342700 16 17 13
3.172184 0.315922 6.178307 62 62 59
3.204032 0.276968 6.240231 113 112 110
3.204032 0.276968 6.240231 113 112 110
3.155625 0.331134 6.143815 5 4 1
3.194639 0.288449 6.219534 67 66 63
2.655263 0.853960 5.168113 111 108 107
2.994484 0.495283 5.807943 79 81 77
3.460013 0.021240 6.709388 122 121 117
2.213631 1.326989 4.289406 88 92 94
3.192545 0.307690 6.177154 118 118 115
3.498752 -0.036892 6.768194 61 61 56
3.178496 0.334505 6.128828 52 52 49
2.698436 0.832075 5.201355 71 70 64
3.294036 0.207718 6.348097 68 68 66
3.491613 0.023976 6.696033 126 125 120
3.246959 0.284422 6.215738 36 33 32
4.602753 -1.091346 8.805569 65 64 57
2.710027 0.864865 5.163519 9 10 6
2.809510 0.761589 5.349565 82 83 79
3.130889 0.423289 5.961263 73 74 70
2.502314 1.077554 4.764356 86 88 86
3.200074 0.347207 6.089466 105 105 104
3.262291 0.310016 6.185623 44 42 39
3.339403 0.229690 6.325719 27 26 23
3.028366 0.561779 5.709409 37 38 34
3.210386 0.395911 6.043158 33 33 30
3.280452 0.320059 6.162587 111 110 108
2.321806 1.282567 4.361678 80 85 88
3.403204 0.187688 6.391207 101 101 98
3.181147 0.426271 5.968870 85 85 83
4.136662 -0.554737 7.757927 2 126 117
3.312926 0.305195 6.174889 81 81 79
3.085715 0.564251 5.723207 38 38 37
3.384885 0.266955 6.268062 67 67 64
3.528928 0.129994 6.520564 32 32 29
3.313631 0.407425 6.038287 82 85 85
3.057431 0.656397 5.548758 25 25 22
3.419992 0.317007 6.200988 66 66 63
3.435514 0.304960 6.217910 91 91 89
3.666004 0.059013 6.625841 31 29 24
3.920646 -0.176219 7.080343 68 67 61
3.429080 0.277592 6.190825 108 106 106
3.270870 0.478846 5.889741 74 74 73
3.255563 0.499074 5.855691 29 29 29
3.139616 0.623104 5.644762 82 83 80
3.514484 0.257005 6.300920 100 97 94
3.800961 -0.014842 6.811385 72 70 65
2.816985 0.928556 5.043874 87 91 91
3.462592 0.310777 6.192622 67 67 64
3.302571 0.470845 5.906400 76 76 76
3.302571 0.470845 5.906400 76 76 76
3.762031 0.024634 6.724615 75 77 73
3.110426 0.657724 5.547068 28 26 23
3.733937 0.085689 6.652610 33 32 29
3.819267 -0.027282 6.801187 105 103 98
3.819267 -0.027282 6.801187 105 103 98
2.992247 0.778525 5.317570 74 74 73
2.322966 1.421637 4.127835 80 84 86
3.448898 0.363147 6.127356 107 106 104
2.212512 1.521926 3.930434 6 7 12
3.336061 0.460849 5.924642 34 34 34
3.355020 0.440707 5.950050 84 86 86
3.432828 0.379126 6.077505 98 97 95
3.293577 0.510199 5.818104 82 82 83
3.451622 0.366969 6.094761 71 69 68
2.368130 1.401846 4.167219 124 124 0
3.484034 0.359440 6.123476 102 101 101
3.465035 0.379865 6.074972 58 58 58
3.465035 0.379865 6.074972 58 58 58
3.077791 0.747086 5.391888 79 81 80
3.077790 0.747086 5.391888 79 81 80
3.102820 0.725828 5.427630 31 32 30
2.685035 1.132590 4.683150 81 87 89
2.444695 1.350533 4.263258 8 7 8
2.444695 1.350533 4.263258 8 7 8
3.515086 0.360864 6.127538 105 104 102
3.484282 0.398758 6.051887 112 112 112
3.522509 0.369346 6.106365 53 51 52
3.636967 0.269770 6.290488 109 109 107
3.536973 0.359621 6.113447 106 104 104
3.651032 0.269430 6.299011 116 115 114
3.295387 0.607117 5.684720 35 35 35
3.293485 0.606949 5.680072 36 35 35
3.656323 0.223130 6.303941 80 79 76
3.656323 0.223130 6.303941 80 79 76
2.471186 1.355800 4.258248 119 118 122
3.716537 0.207402 6.398450 28 27 23
3.816989 0.098346 6.561557 26 25 20
3.535304 0.385181 6.070836 107 106 106
3.083933 0.758490 5.286034 75 79 81
3.083933 0.758490 5.286034 75 79 81
3.654054 0.289148 6.258619 125 125 123
3.826057 0.130811 6.540832 71 71 68
3.681488 0.262373 6.293037 61 61 57
3.399213 0.526430 5.805261 29 30 31
3.158853 0.751946 5.392551 83 87 88
3.554726 0.387075 6.064173 59 57 58
3.200174 0.720443 5.457375 79 80 80
3.612623 0.336324 6.149661 78 77 73
2.424729 1.417901 4.120070 116 116 119
2.424729 1.417901 4.120070 116 116 119
3.512815 0.455525 5.955098 36 39 39
3.522447 0.442773 5.968347 87 90 90
2.957097 0.963021 4.994445 31 33 34
2.957097 0.963021 4.994445 31 33 34
3.726617 0.277982 6.286244 110 109 104
3.267111 0.694741 5.504256 28 29 30
3.583458 0.380824 6.036874 119 117 116
3.110062 0.828047 5.234285 31 33 34
3.712196 0.307476 6.233468 109 108 106
3.607593 0.396503 6.054574 83 82 83
3.970488 0.064174 6.658001 71 70 67
2.848073 1.093618 4.775759 35 36 34
3.638113 0.371644 6.093793 54 52 49
3.259490 0.711774 5.457267 86 87 88
3.745317 0.274665 6.264044 58 57 52
3.693522 0.336996 6.170956 75 79 79
3.336139 0.661299 5.567975 74 78 78
3.762763 0.286018 6.276001 92 91 89
3.624594 0.396425 6.045482 61 63 61
3.659130 0.378585 6.099845 111 110 108
3.352425 0.652426 5.584702 85 89 89
3.288377 0.699717 5.468840 40 41 42
3.288377 0.699717 5.468840 40 41 42
2.392043 1.512662 3.970975 127 0 5
3.682401 0.369828 6.109776 74 77 76
3.472151 0.562713 5.750325 65 66 66
3.472151 0.562713 5.750325 65 66 66
3.719512 0.357087 6.157844 41 44 44
4.005914 0.093851 6.618915 75 75 71
3.957933 0.142854 6.537733 41 38 36
3.949752 0.160452 6.518614 96 93 91
3.398117 0.634449 5.604058 32 31 32
2.467254 1.455276 4.061513 76 82 88
3.230495 0.802400 5.312289 33 32 34
3.448525 0.613665 5.649066 92 95 96
2.912543 1.090916 4.749873 39 41 41
2.912543 1.090916 4.749873 39 41 41
3.349433 0.722150 5.462320 33 34 33
2.609689 1.355534 4.249954 63 65 67
3.821464 0.325369 6.213394 37 40 39
3.279796 0.790629 5.330644 90 93 93
2.610045 1.376916 4.228639 107 108 113
3.496152 0.627481 5.656971 77 81 81
3.561853 0.576051 5.742607 33 33 34
3.430470 0.679373 5.512403 76 77 77
3.663632 0.512327 5.864013 85 88 88
4.176557 0.073031 6.683500 81 80 77
3.261897 0.859376 5.205051 87 93 92
2.602534 1.427018 4.151817 10 12 18
3.567599 0.600337 5.689646 28 29 30
3.417000 0.750767 5.420985 72 76 76
3.487920 0.706897 5.506598 76 82 83
3.487920 0.706897 5.506598 76 82 83
3.314590 0.891930 5.200457 64 68 69
3.314589 0.891930 5.200458 64 68 69
3.319993 0.860503 5.207157 87 91 93
3.601291 0.636585 5.640664 74 78 78
3.873798 0.415635 6.063374 36 39 37
2.501023 1.552915 3.906311 31 37 49
3.420077 0.788979 5.334141 82 88 90
3.484563 0.737898 5.427405 91 96 99
3.576504 0.686188 5.567099 74 77 79
3.576504 0.686188 5.567099 74 77 79
3.865955 0.437912 6.010444 82 84 85
3.661538 0.608216 5.684702 35 38 38
3.889658 0.419715 6.037452 102 103 104
3.605081 0.661496 5.594648 38 40 41
4.088076 0.260503 6.332901 34 35 32
4.187943 0.189444 6.474576 65 64 61
4.118019 0.248038 6.357791 94 94 93
3.925960 0.415745 6.051493 88 90 90
3.875141 0.462969 5.965691 70 73 74
3.933943 0.424404 6.054433 71 71 73
3.890491 0.453274 5.983644 97 99 102
3.959341 0.388603 6.079803 72 76 74
4.183865 0.224493 6.397702 69 68 65
3.375930 0.894417 5.149173 79 83 83
3.907998 0.465334 5.957222 116 120 121
4.222998 0.215910 6.434256 76 75 72
3.869745 0.512620 5.892993 26 29 29
4.188917 0.252212 6.376054 120 119 118
3.723163 0.620742 5.665648 71 73 74
3.973786 0.421266 6.043271 72 73 75
4.209529 0.229752 6.401236 100 99 96
3.944918 0.453650 5.992904 107 108 112
3.961892 0.433305 6.015575 124 124 127
3.424121 0.873655 5.197271 58 59 59
3.273885 0.990629 4.969277 39 41 44
3.929370 0.473542 5.952978 120 123 125
3.950435 0.459207 5.981176 66 68 70
3.412799 0.892866 5.161273 118 117 122
4.211858 0.255932 6.368083 52 51 50
4.221964 0.242627 6.380087 88 89 87
4.143909 0.313985 6.247512 28 28 25
4.187100 0.296222 6.295168 86 86 85
4.242941 0.236352 6.373821 77 78 76
3.455454 0.869485 5.185317 93 98 100
4.213627 0.281882 6.322717 120 119 118
3.454688 0.886480 5.178763 113 117 119
4.229556 0.259964 6.338485 100 100 99
3.760808 0.645002 5.616848 85 89 89
3.544297 0.859311 5.279200 37 38 42
3.544297 0.859311 5.279200 37 38 42
3.492707 0.884850 5.173959 93 97 101
3.455412 0.915599 5.116309 127 3 7
3.807519 0.648944 5.621862 82 84 84
3.331252 1.027283 4.918622 39 41 44
3.805215 0.669946 5.593562 87 90 94
3.053796 1.264188 4.453397 41 46 52
3.856013 0.703482 5.546937 90 93 94
3.331382 1.129776 4.749863 9 14 26
3.852627 0.737511 5.471906 79 82 85
3.366940 1.114516 4.764449 2 8 17
-4.588489 -0.580385 7.087489 82 75 65
-4.527027 -0.601233 7.124229 67 61 49
-4.581292 -0.732124 7.271201 70 62 47
-4.430672 -0.606952 7.152483 66 60 44
-4.468719 -0.693693 7.234607 71 66 51
-4.164293 -0.745584 7.371753 77 72 58
-4.121159 -0.720487 7.371460 88 84 73
-1.629620 1.067414 4.723934 94 96 97
-2.323549 0.499102 5.553785 40 40 39
-2.158393 0.623795 5.386254 70 77 80
-2.396999 0.430481 5.664846 56 55 47
-2.222369 0.559836 5.478608 82 84 91
-2.578850 0.253871 5.936122 75 68 59
-2.548096 0.271619 5.919244 72 64 53
-2.433577 0.275083 5.986540 91 81 63
-2.543297 0.072373 6.270826 74 63 44
-2.273060 0.260995 5.966391 22 10 114
-2.904545 -0.269108 6.766880 78 66 47
-1.719978 0.716147 5.285161 26 22 8
-1.767648 0.406156 5.694986 46 42 30
-1.750735 0.417572 5.678217 93 88 79
-0.978905 1.028974 4.735655 2 126 118
-1.820156 0.065047 6.199264 29 15 114
-1.558972 0.246779 5.919448 19 17 9
-1.537049 0.237976 5.923100 76 74 65
-1.871856 -0.118365 6.488128 68 54 28
-1.166309 0.487920 5.535108 84 82 74
-1.046808 0.473453 5.564448 101 99 91
-1.035632 0.462756 5.586130 104 101 93
-0.994449 0.496083 5.522055 90 87 80
-1.006667 0.464180 5.567807 65 63 55
-0.928177 0.520955 5.495067 30 28 19
-0.957969 0.469211 5.571850 94 92 86
-1.637921 -0.373273 6.895067 77 63 35
-1.638156 -0.373358 6.896000 77 63 35
-1.092942 0.271133 5.871232 63 60 50
-0.892711 0.482011 5.548085 93 88 82
-0.905666 0.460885 5.576403 89 86 79
-0.915564 0.410219 5.656612 22 20 11
-1.533603 -0.402440 6.948764 88 72 40
-1.430020 -0.344776 6.862462 84 70 43
-0.787217 0.467265 5.578018 69 71 66
-0.661630 0.624571 5.326478 13 10 2
-1.047265 0.115479 6.136370 18 8 114
-0.813802 0.375078 5.709846 19 19 12
-0.701063 0.482722 5.546650 25 26 18
-0.989246 0.095053 6.175126 8 124 98
-0.822929 0.303961 5.825837 66 66 59
-0.822929 0.303961 5.825837 66 66 59
-0.710644 0.417712 5.647188 18 18 14
-0.635136 0.415198 5.661380 17 18 10
-0.292551 0.793506 5.069564 28 31 25
-0.415144 0.585627 5.398138 73 73 67
-0.575482 0.331854 5.807163 13 12 4
-0.430108 0.345404 5.788789 81 85 78
-0.537898 0.134138 6.138000 78 77 69
-0.500675 0.189313 6.057711 75 77 68
-0.467586 0.231380 5.981589 88 88 81
-0.467586 0.231380 5.981589 88 88 81
-0.378406 0.379430 5.740502 27 27 20
-0.503342 0.159100 6.102322 44 44 35
-0.469741 0.204069 6.019902 74 77 65
-0.381712 0.353064 5.780285 39 43 37
-0.327732 0.444761 5.632684 67 69 64
-0.203567 0.652213 5.296633 66 66 60
-0.507716 0.119174 6.169118 61 66 56
-0.214454 0.619050 5.354917 77 79 74
-0.390794 0.308271 5.868909 74 77 72
-0.447549 0.157047 6.116727 78 84 74
-0.214618 0.565403 5.444829 69 71 66
-0.410572 0.213905 6.020723 62 63 54
-0.445025 0.146554 6.138951 34 41 32
-0.404913 0.205624 6.020835 44 46 38
-0.223085 0.527515 5.509160 18 23 19
-0.194847 0.556473 5.459797 17 14 11
-0.419415 0.122295 6.175426 80 85 74
-0.419415 0.122295 6.175426 80 85 74
-0.048533 0.748219 5.155263 16 15 7
-0.239333 0.352627 5.804251 71 76 70
-0.348217 0.135944 6.149158 74 80 69
-0.354740 0.117501 6.179528 27 33 22
-0.116870 0.486891 5.577020 77 79 74
-0.061454 0.558122 5.467427 75 77 72
0.024744 0.731459 5.186585 67 67 59
-0.099723 0.463943 5.615085 32 35 31
-0.327921 -0.017701 6.412483 46 65 1
-0.061623 0.476470 5.611191 74 77 73
-0.064374 0.418138 5.699635 26 27 22
-0.009094 0.529290 5.514355 16 16 9
0.118571 0.800762 5.077183 16 13 7
-0.143877 0.181898 6.105337 78 86 81
0.033263 0.515138 5.545296 80 84 80
0.050714 0.512196 5.543881 61 65 62
-0.015209 0.339100 5.851512 73 79 75
-0.015209 0.339100 5.851512 73 79 75
-0.061721 0.204508 6.062962 12 16 5
0.049329 0.438424 5.685840 11 13 9
-0.128966 -0.055612 6.512419 31 39 19
-0.120132 -0.048709 6.498885 63 73 58
-0.014139 0.198674 6.083167 80 84 75
0.006758 0.220232 6.053577 80 84 76
0.114517 0.383628 5.781977 65 68 65
-0.051348 -0.073534 6.553349 78 86 69
0.134451 0.394178 5.766311 100 102 102
0.140062 0.392625 5.766983 102 104 103
0.143858 0.400029 5.754636 35 38 36
0.155174 0.426502 5.711810 76 78 77
0.163376 0.448999 5.682421 62 68 65
0.137182 0.360804 5.828115 73 76 73
0.079122 0.131488 6.214886 83 88 77
0.178955 0.397128 5.768523 64 63 64
0.197392 0.415532 5.727621 73 73 73
0.023309 -0.094878 6.603099 36 45 27
0.236556 0.445276 5.670179 70 78 78
0.236556 0.445276 5.670179 70 78 78
0.306991 0.589924 5.442679 83 86 80
0.078644 -0.095061 6.611473 58 66 50
0.161191 0.129760 6.228735 68 72 61
0.177986 0.111443 6.264417 72 76 65
0.408420 0.793545 5.117912 80 85 83
0.183957 0.096835 6.284203 23 29 18
0.301743 0.442218 5.707252 62 63 61
0.451038 0.872282 4.977575 28 31 28
0.308919 0.422313 5.733514 103 108 104
0.336665 0.506527 5.587740 23 25 20
0.433509 0.795918 5.100804 75 78 76
0.279639 0.299822 5.951954 76 79 74
0.320551 0.410910 5.747227 81 83 83
0.331112 0.435783 5.719105 60 64 63
0.441586 0.778314 5.127580 24 25 21
0.319520 0.370770 5.820555 82 89 89
0.351747 0.474973 5.641733 64 66 62
0.338588 0.410714 5.757087 86 91 92
0.306542 0.284331 5.971059 85 92 87
0.271203 0.162148 6.184246 68 74 65
0.388310 0.542292 5.529623 78 81 76
0.364662 0.465078 5.660624 49 51 47
