ply
format ascii 1.0
element vertex 1282
property float x
property float y
property float z
property uchar red
property uchar green
property uchar blue
end_header
-0.193558 -0.167584 9.797376 29 123 79
-0.193286 0.508569 9.622580 16 2 0
-0.202172 -0.081049 9.738964 84 46 120
-0.203001 -0.269931 9.682767 30 127 82
-0.202296 -0.669182 9.724923 50 15 100
-0.226232 -0.621514 9.613223 7 0 0
-0.104616 -0.206245 9.777653 105 77 40
-0.140005 -0.737640 9.730872 58 36 10
-0.103281 -0.833770 9.673760 37 5 90
-0.081989 -0.663635 9.625751 127 95 59
0.017773 -0.096959 9.707165 37 5 80
0.253147 0.294759 10.312781 11 121 86
0.075568 0.419802 9.714230 23 113 59
0.070521 0.481425 9.651453 9 106 62
0.001470 -0.737339 9.714936 25 123 89
0.001470 -0.737338 9.714937 25 123 89
0.292739 0.295345 10.308810 6 114 87
0.421571 0.305264 10.291303 20 126 88
0.169716 -0.677134 9.649637 75 47 13
0.237419 -0.187450 9.706326 107 78 40
0.237419 -0.187450 9.706326 107 78 40
0.186316 -0.792307 9.649204 106 78 40
0.288849 -0.186463 9.698869 119 89 48
0.237188 -0.828188 9.567561 32 1 82
0.367061 0.421833 9.690276 21 114 56
0.367061 0.421833 9.690276 21 114 56
0.321374 -0.188644 9.624413 32 0 81
0.567252 0.396968 10.203656 18 122 83
0.350096 -0.785353 9.619608 117 87 50
0.456378 -0.108397 9.642178 42 9 85
0.456378 -0.108397 9.642178 42 9 85
0.416965 -0.729973 9.602199 96 69 35
0.416965 -0.729972 9.602199 96 69 35
0.479917 -0.136692 9.650524 81 53 18
0.435844 -0.704648 9.573927 21 116 69
0.508873 -0.124165 9.637004 33 1 84
0.480741 -0.273537 9.563288 12 106 62
0.699014 0.265391 10.238110 101 85 65
0.726491 0.317062 10.292473 125 109 76
0.532665 -0.140955 9.650472 59 36 9
0.532665 -0.140955 9.650472 59 36 9
0.537704 -0.119985 9.637205 25 123 83
0.550142 -0.161393 9.655559 39 11 99
0.557681 -0.136079 9.644520 50 29 2
0.557681 -0.136079 9.644520 50 29 2
0.569282 -0.181015 9.656964 68 42 13
0.602476 -0.150686 9.654388 120 96 58
0.807099 0.317788 10.280622 14 123 89
0.551394 -0.622573 9.490663 4 105 67
0.809147 0.359675 10.235420 40 24 3
0.630071 -0.222896 9.661354 9 109 75
0.833193 0.308146 10.289274 79 63 30
0.652021 -0.176319 9.671156 85 60 25
0.639691 -0.272076 9.626078 63 40 9
0.659326 -0.210924 9.679067 97 70 34
0.671491 0.558361 9.508525 17 5 1
0.623257 -0.583358 9.419424 46 13 91
0.712378 -0.296005 9.646563 25 125 79
0.713992 -0.329252 9.648265 39 17 107
0.689132 -0.596484 9.534111 29 14 2
0.731747 0.526295 9.442199 14 8 4
0.723814 0.518695 9.400804 13 8 3
0.964566 0.346315 10.270486 112 92 58
0.812775 -0.083874 9.643935 36 9 97
0.831802 -0.110510 9.645305 124 96 59
1.004910 0.442222 10.209479 3 102 57
0.927711 0.457958 9.848054 123 94 49
0.857589 -0.084873 9.643906 50 24 109
0.857589 -0.084874 9.643905 50 24 109
0.892409 0.472249 9.630683 76 48 122
0.874619 -0.107964 9.640505 120 91 53
1.059607 0.328064 10.139487 19 119 76
0.930385 0.527627 9.487017 73 48 124
1.077435 0.391736 10.113856 46 27 2
0.950096 -0.481607 9.577124 25 126 93
0.934309 -0.720722 9.525584 28 4 101
1.121742 0.294469 10.119888 61 48 35
1.139049 0.250235 10.134715 127 108 73
0.962054 -0.704317 9.458111 13 5 3
1.004603 -0.554016 9.458017 92 79 57
1.067872 -0.387713 9.578950 120 92 55
1.107776 -0.054180 9.602306 40 13 97
1.107776 -0.054179 9.602306 40 13 97
1.117923 0.487528 9.517991 39 21 4
1.132616 0.518297 9.450655 106 80 39
1.196636 0.471098 9.696240 94 65 12
1.161898 -0.037484 9.598847 117 91 53
1.281408 0.262808 10.066117 87 66 33
1.170710 -0.075139 9.598299 45 20 106
1.187081 0.020989 9.598432 27 126 87
1.187080 0.020988 9.598432 27 126 87
1.160551 -0.502513 9.512806 56 27 112
1.302650 0.325890 10.064377 7 113 79
1.185990 -0.213592 9.574375 35 8 94
1.185990 -0.213593 9.574375 35 8 94
1.311742 0.411017 10.075201 79 56 24
1.211577 -0.030884 9.614273 101 74 38
1.337031 0.393218 10.082212 2 110 81
1.203377 -0.478956 9.526458 3 98 60
1.267424 -0.342682 9.556034 123 95 55
1.388317 0.265232 10.063030 49 36 16
1.388318 0.265232 10.063030 49 36 16
1.417985 0.389032 10.113135 73 55 25
1.289377 -0.358598 9.532008 36 13 110
1.421344 0.289104 10.093762 67 52 24
1.363359 -0.314142 9.547394 7 3 2
1.540984 0.576911 9.805222 37 21 4
1.461905 0.763892 9.284165 63 44 123
1.523955 0.648521 9.661346 11 124 88
1.666313 0.357865 9.951025 103 80 41
1.671929 0.305545 9.971498 108 84 46
1.567487 -0.260026 9.373906 47 20 114
1.774937 0.300703 9.698047 126 100 58
1.774937 0.300702 9.698047 126 100 58
-0.887052 0.776926 9.403212 46 37 29
-0.670384 -0.228739 10.074140 13 116 87
-0.385062 -0.079744 9.812821 39 4 84
0.674881 0.318767 10.285403 103 83 56
0.682529 -0.937594 9.578317 13 9 4
0.966801 -0.105373 9.631613 84 59 25
1.416050 -0.215457 9.534362 1 100 58
-0.645608 -0.171906 10.270434 31 2 89
0.434939 -0.163416 9.675219 22 119 74
0.502993 -0.204296 9.660611 22 122 80
0.965768 -0.105552 9.629937 88 62 30
1.281143 0.262153 10.064387 86 65 32
1.334426 0.427231 10.081169 126 105 73
-0.611573 0.433908 10.480938 74 54 26
-0.611573 0.433908 10.480938 74 54 26
-0.796662 -0.503357 10.189784 18 115 71
-0.911100 -0.839592 9.971725 5 104 68
-0.870795 -0.685591 10.015698 25 122 81
-0.868491 -0.863897 9.975902 121 89 51
-0.651878 -0.149610 10.258094 89 63 33
-0.544680 -0.004335 10.463295 118 93 58
-0.525223 -0.010217 10.367030 16 116 80
-0.591706 -0.367684 10.236613 73 52 30
-0.754946 -0.966717 9.907745 4 1 0
-0.728373 -0.956547 9.958211 3 1 0
-0.633858 -0.142863 10.060718 96 66 39
-0.732908 -0.908816 9.926803 26 120 70
-0.618572 -0.125619 10.055075 18 113 79
-0.598372 -0.298028 10.124555 31 14 0
-0.438164 0.251652 10.402447 69 50 26
-0.459796 0.049719 10.346141 115 87 51
-0.557472 -0.206626 10.037194 115 83 43
-0.370339 0.377237 10.379142 80 63 39
-0.449590 0.163967 10.216805 95 67 23
-0.551354 -0.047827 9.780460 83 53 10
-0.534970 -0.028091 9.767090 48 12 95
-0.270648 0.290521 10.369066 9 120 81
-0.527319 -0.810750 9.881722 44 11 97
-0.539958 -0.816703 9.850123 53 18 104
-0.563608 -0.902991 9.711776 18 126 103
-0.513612 -0.780542 9.808130 6 100 62
-0.448885 -0.186954 9.832798 123 90 48
-0.458746 -0.048806 9.722064 78 43 5
-0.425714 0.709817 9.682959 5 1 0
-0.498521 -0.900692 9.746347 6 3 0
-0.404706 -0.084615 9.767639 59 23 100
-0.411031 -0.772651 9.787653 23 116 68
-0.334730 -0.201738 9.817748 64 33 116
-0.108569 0.383095 10.285011 87 65 29
-0.372114 -0.455499 9.696498 6 1 0
-0.372114 -0.455499 9.696498 6 1 0
-0.055822 0.278173 10.342605 98 80 48
-0.246173 0.435805 9.770095 70 39 0
-0.243028 -0.155263 9.804248 28 123 73
-0.219206 -0.204644 9.787965 73 51 27
-0.219206 -0.204643 9.787965 73 51 27
-0.286015 -0.758361 9.645100 10 109 69
-0.191774 -0.225382 9.780090 33 127 80
-0.162340 -0.122951 9.779470 66 41 13
-0.162340 -0.122951 9.779470 66 41 13
0.058525 0.242394 10.303329 31 11 107
-0.136248 -0.209096 9.791653 59 28 112
0.090902 0.269556 10.319484 72 58 39
-0.116545 -0.152376 9.787929 39 8 87
-0.152706 -0.715495 9.735361 19 116 82
-0.104076 -0.206159 9.777943 100 73 36
-0.098605 -0.262805 9.726923 102 74 35
-0.062615 -0.208255 9.777393 63 34 120
0.008383 0.480100 9.669624 34 4 84
0.226363 0.308843 10.298398 61 44 19
-0.016842 -0.769772 9.718688 68 45 26
-0.016842 -0.769772 9.718688 68 45 26
0.231567 0.349307 10.268800 21 9 0
-0.009057 -0.714490 9.700239 85 59 35
-0.006421 -0.713394 9.706483 85 59 35
0.247806 0.291217 10.297237 13 123 87
0.060635 -0.737997 9.700076 42 11 91
0.138473 -0.104272 9.675475 28 122 69
0.136522 -0.670521 9.654126 37 5 91
0.199048 -0.240419 9.697757 75 49 22
0.199047 -0.240420 9.697756 75 49 22
0.209426 -0.212446 9.716577 14 113 74
0.207260 -0.761327 9.660038 30 0 80
0.260127 -0.213299 9.709812 39 7 87
0.261299 -0.108182 9.589377 38 7 84
0.530171 0.311932 10.267737 11 119 80
0.513256 0.396377 10.195965 25 2 90
0.522820 0.261069 10.217248 6 118 90
0.561093 0.354183 10.239257 101 85 55
0.555362 0.234231 10.180456 7 2 0
0.444528 0.452688 9.659703 65 39 9
0.631862 0.295086 10.235388 67 44 15
0.454686 -0.219711 9.672639 45 17 95
0.621102 0.235323 10.159315 8 4 4
0.667334 0.316957 10.259706 101 84 55
0.495727 -0.071306 9.589591 38 5 95
0.538430 -0.214432 9.656905 36 5 89
0.549975 -0.082465 9.617764 77 50 20
0.757018 0.281306 10.272450 14 126 87
0.542411 -0.822953 9.574581 108 83 48
0.560618 -0.348300 9.544001 14 9 2
0.596921 -0.336561 9.521048 40 14 97
0.603581 -0.881924 9.518302 76 54 26
0.674833 -0.270280 9.660901 14 120 84
0.601490 -0.599589 9.368103 43 12 95
0.716192 -0.125661 9.686559 34 5 87
0.730491 -0.354656 9.639567 30 16 2
0.876499 -0.106460 9.646364 120 92 52
1.028375 0.282733 10.193215 118 90 49
1.050459 0.419091 10.161141 48 21 106
0.875057 -0.661295 9.583542 30 1 89
0.975537 -0.063203 9.643434 103 75 37
0.972139 -0.450556 9.595216 104 75 39
0.987062 -0.264207 9.617104 116 88 46
0.984858 -0.365909 9.601260 127 97 59
1.044048 0.045964 9.636946 84 59 29
1.028705 -0.493302 9.553773 45 27 4
1.113014 -0.048932 9.623414 39 12 97
1.140994 0.523722 9.480183 105 79 37
1.162904 0.039648 9.615550 61 39 9
1.274380 0.302490 10.062437 78 56 27
1.280696 0.262022 10.062614 84 61 30
1.185279 0.017469 9.612671 22 122 80
1.191933 0.058957 9.609481 23 125 84
1.192068 -0.156794 9.592106 39 13 101
1.177503 -0.536259 9.558038 10 5 2
1.203340 -0.069828 9.584321 111 85 50
1.201322 -0.070826 9.574844 111 85 50
1.212343 0.033265 9.609926 97 69 32
1.212343 0.033265 9.609926 97 69 32
1.315509 0.303710 10.061133 59 41 14
1.208207 -0.471590 9.551810 127 94 56
1.351682 0.474826 10.083840 126 106 70
1.337931 0.265698 10.042107 11 115 74
1.383666 0.221845 10.053235 86 67 30
1.410324 0.240838 10.082342 19 2 91
1.358823 0.664954 9.384889 12 127 96
1.406690 -0.360740 9.572302 6 2 1
1.417967 -0.214274 9.544250 2 99 58
1.501069 0.612235 9.629537 31 19 1
1.626771 0.595473 9.843899 43 31 10
1.653556 0.301342 9.992979 51 26 109
1.596495 -0.008069 9.484762 47 17 92
1.762676 0.497483 9.684394 30 3 89
1.805508 0.455916 9.605536 8 1 0
1.803982 0.454489 9.578407 7 2 0
-0.590145 -0.140866 10.069826 95 64 27
-0.161997 0.311236 10.370851 100 79 47
0.441411 -0.698114 9.587699 19 114 69
0.501433 -0.334037 9.552716 5 2 2
0.693592 -0.116892 9.710024 23 126 84
1.203930 -0.042597 9.584810 108 81 44
1.199979 -0.424359 9.555222 18 117 73
-0.848631 -0.228323 10.316732 11 114 78
-0.765484 -0.104660 10.470485 126 99 63
-0.839018 -0.941197 9.954874 27 17 11
-0.635826 -0.474523 10.250270 111 83 52
-0.292182 -0.184348 9.820018 123 92 54
-0.292182 -0.184348 9.820018 123 92 54
-0.071659 0.327137 10.354453 114 93 57
-0.254392 -0.205328 9.818138 39 9 98
0.037944 -0.737766 9.710798 38 6 91
0.037944 -0.737766 9.710798 38 6 91
1.001397 -0.464686 9.573888 27 125 90
0.999706 -0.521330 9.560601 36 22 9
-0.640926 0.804215 11.224713 70 65 58
-0.675005 -1.015662 11.109337 61 50 45
-0.912322 -0.087376 10.389716 26 20 16
-0.955705 -0.666912 10.287082 26 18 15
-0.793829 -0.102983 10.409243 0 99 61
-0.841729 0.778236 10.293954 92 67 17
-0.822193 -0.253737 10.321945 5 107 68
-0.823807 -0.600027 10.277216 32 19 8
-0.929486 -0.861287 10.009550 35 19 5
-0.780622 0.746101 10.227555 71 42 125
-0.813387 -0.684483 9.995119 115 84 49
-0.824279 -0.939351 9.984246 28 18 12
-0.639627 -0.281592 10.269525 9 114 83
-0.643454 -0.554505 10.221572 45 13 99
-0.469882 0.332221 10.521748 60 41 17
-0.594570 -0.220704 10.060630 14 109 70
-0.425632 0.233099 10.385140 125 99 72
-0.425413 0.429321 10.356146 66 39 18
-0.727521 0.694494 9.576802 44 35 28
-0.468505 0.027251 10.216429 65 36 122
-0.607140 -0.882021 9.912055 100 73 47
-0.607140 -0.882021 9.912055 100 73 47
-0.589973 -0.838994 9.923435 43 8 97
-0.686767 0.650208 9.568312 87 65 19
-0.329387 0.277162 10.435253 95 74 43
-0.329387 0.277162 10.435253 95 74 43
-0.519087 -0.572160 9.960432 56 26 114
-0.489268 -0.100425 9.973626 60 31 121
-0.517376 -0.774467 9.914806 71 40 2
-0.525146 -0.013519 9.799279 88 58 16
-0.514713 -0.642977 9.774582 89 61 31
-0.498479 0.014556 9.761820 29 21 16
-0.478019 -0.279860 9.789631 27 118 73
-0.440993 -0.854780 9.728738 39 1 77
-0.405836 -0.770076 9.801852 23 116 69
-0.351043 -0.732648 9.803070 51 19 104
-0.368756 -0.647469 9.713182 108 75 40
-0.313437 -0.117576 9.820535 78 53 22
-0.313437 -0.117575 9.820536 78 53 22
-0.226384 -0.754496 9.770671 122 90 51
-0.207156 -0.272753 9.702297 54 19 96
-0.219431 -0.024069 9.637693 11 1 0
-0.201686 -0.630725 9.689777 52 14 98
-0.130618 -0.206913 9.809529 58 30 115
-0.130618 -0.206914 9.809528 58 30 115
-0.175391 -0.646119 9.700706 102 71 34
-0.195703 -0.867864 9.635988 40 4 87
-0.139132 -0.260930 9.726258 96 68 46
-0.103001 -0.234791 9.761357 35 1 87
-0.084859 -0.660287 9.637287 110 82 48
0.035341 -0.678022 9.685924 109 77 35
0.093953 -0.715754 9.695170 113 85 49
0.190294 -0.130477 9.724023 82 54 24
0.190294 -0.130477 9.724023 82 54 24
0.215380 -0.736509 9.653997 62 41 19
0.235352 -0.661201 9.608464 75 46 14
0.351068 -0.782901 9.626175 123 92 55
0.400985 -0.189809 9.691988 119 87 50
0.418121 -0.667122 9.571938 68 36 10
0.418121 -0.667122 9.571938 68 36 10
0.481179 -0.210859 9.663328 101 73 33
0.467096 -0.273866 9.608488 112 79 34
0.488219 -0.177577 9.667398 77 50 20
0.526471 -0.184432 9.669107 102 74 43
0.496080 -0.689148 9.580546 55 32 4
0.498771 -0.481347 9.519690 6 2 0
0.498771 -0.481347 9.519690 6 2 0
0.492959 -0.869735 9.488021 49 16 98
0.551470 -0.279334 9.590051 92 63 26
0.554139 -0.310993 9.544078 48 18 90
0.781603 0.211824 10.269638 66 49 18
0.611591 -0.050607 9.611471 25 0 91
0.559946 -0.907663 9.459316 23 126 89
0.630815 -0.308899 9.571030 59 37 10
0.682938 -0.068193 9.705323 31 15 2
0.722820 -0.185526 9.693207 44 13 93
0.736616 -0.044610 9.700611 45 17 101
0.719172 -0.327101 9.654460 40 15 106
1.012580 0.218255 10.268452 51 28 110
0.827559 -0.623032 9.460582 8 104 64
1.096691 0.332873 10.137608 55 30 8
1.105101 0.279506 10.127488 39 21 5
0.985586 0.112885 9.639518 107 79 42
1.141775 0.225846 10.133278 91 73 43
0.998006 -0.464883 9.558572 29 125 86
0.984797 -0.618012 9.403057 8 3 3
1.029191 -0.491581 9.565608 35 18 0
1.002292 -0.559923 9.426497 127 108 81
1.060274 -0.603676 9.383317 10 5 2
1.231776 0.267459 10.077621 67 48 25
1.261460 0.364076 10.098418 95 77 43
1.113371 -0.476763 9.425527 46 19 103
1.207700 0.077240 9.595235 112 83 43
1.331459 0.244144 10.069799 16 119 76
1.240670 -0.428823 9.401934 18 7 1
1.409512 0.403953 10.122506 119 105 75
1.423286 0.288818 10.100672 63 46 17
1.470163 0.285453 10.110342 120 96 55
1.459874 0.083092 9.527548 119 92 50
1.459874 0.083092 9.527548 119 92 50
1.482557 -0.210056 9.286851 39 8 87
1.482557 -0.210056 9.286851 39 8 87
1.515574 -0.269164 9.390181 58 28 104
1.636707 0.511681 9.936013 22 2 83
1.645864 0.486377 9.953298 75 54 21
1.770367 0.372899 9.618443 28 1 79
1.815876 0.572864 9.702640 2 1 0
1.797713 0.448544 9.557086 9 2 1
1.834456 0.562984 9.741248 2 0 1
-0.828383 -0.449153 10.308443 31 1 87
-0.900128 -0.891640 9.918978 28 122 78
-0.613668 -0.331038 10.270104 103 86 62
-0.627861 -0.140679 10.076653 100 70 43
-0.558259 -0.606504 9.740806 70 40 126
-0.504670 -0.244367 9.844023 126 96 63
-0.139309 -0.795356 9.731593 75 52 22
-0.009867 -0.186415 9.664943 20 119 78
0.877249 0.123769 11.737368 19 126 84
0.419464 -0.856951 9.508214 53 16 89
0.631986 -0.219196 9.671361 11 114 81
1.257424 0.363511 10.084621 92 75 41
1.468808 0.285005 10.100123 125 103 58
1.561029 -0.292125 9.408918 11 4 0
-0.785622 0.669678 10.638869 54 42 21
-0.872892 -0.016656 10.363339 31 17 7
-0.878860 -0.499259 10.353284 29 17 10
-0.779819 0.754300 10.513223 122 97 54
-0.775073 0.776992 10.479628 116 96 51
-0.866189 -0.133553 10.292223 12 114 83
-0.738296 0.687615 10.533658 109 90 53
-0.741366 -0.033121 10.554861 13 113 80
-0.681699 0.620965 10.528240 104 77 35
-0.675305 0.574107 10.521508 93 74 41
-0.919359 -0.739770 9.988340 122 92 65
-0.639148 0.478385 10.504968 84 63 31
-0.720951 -0.591367 10.115305 115 85 53
-0.515109 0.336183 10.484453 58 41 25
-0.493713 0.176531 10.447771 30 5 91
-0.622084 -0.647791 10.047888 123 89 57
-0.622084 -0.647791 10.047888 123 89 57
-0.434580 0.107622 10.403639 126 96 56
-0.424180 0.224903 10.418081 87 65 36
-0.510923 -0.400264 10.225918 90 63 36
-0.505445 -0.333913 10.229687 9 110 71
-0.490657 -0.395620 10.220229 114 84 51
-0.584830 -0.604038 10.000477 96 67 40
-0.496404 -0.447879 10.176760 56 23 113
-0.487551 -0.380872 10.138655 75 43 5
-0.630916 -0.914254 9.810257 18 120 90
-0.574301 -0.605047 9.926238 100 69 42
-0.394140 0.232809 10.327250 106 78 42
-0.503822 -0.338909 10.083556 74 41 2
-0.513490 -0.250956 10.024716 19 115 73
-0.513490 -0.250956 10.024716 19 115 73
-0.582594 -0.434171 9.868069 30 0 94
-0.508423 -0.137206 10.020567 97 70 38
-0.523082 -0.132448 9.979801 96 70 37
-0.492521 -0.361462 10.057300 37 10 101
-0.546378 -0.603285 9.929325 112 80 48
-0.483248 0.184456 10.012455 120 93 59
-0.496103 0.106819 9.981304 19 116 70
-0.541214 -0.881256 9.818320 119 91 54
-0.487769 -0.141924 9.856135 29 121 73
-0.511086 -0.027920 9.757419 90 57 12
-0.502386 -0.579056 9.750214 16 9 6
-0.516449 -0.918213 9.679122 7 3 0
-0.439975 -0.729642 9.804248 44 16 110
-0.443505 -0.049053 9.756322 90 53 13
-0.418121 -0.799113 9.785442 78 50 20
-0.349307 -0.141455 9.832586 33 3 92
-0.361613 0.106370 9.711648 7 3 2
-0.242900 -0.734054 9.767218 43 10 96
-0.218253 -0.202209 9.791271 69 48 24
-0.140504 -0.795255 9.729628 71 48 19
-0.131794 -0.842459 9.617640 30 123 85
-0.060648 -0.265261 9.733312 46 11 89
-0.077405 -0.286679 9.662087 42 6 79
-0.041499 -0.709106 9.716112 99 72 45
0.019052 -0.796324 9.700338 22 122 85
0.248971 0.295316 10.300439 12 124 92
0.058986 -0.799673 9.687962 50 17 102
0.068514 -0.079156 9.659422 15 107 59
0.290976 0.294775 10.298474 6 115 84
0.100474 -0.214680 9.720366 63 36 117
0.185048 -0.790332 9.652809 99 71 37
0.185048 -0.790333 9.652809 99 71 37
0.208710 -0.090993 9.665673 38 5 83
0.418599 0.305510 10.275800 23 2 89
0.439597 0.285129 10.265162 91 68 35
0.356609 0.336232 9.844483 25 3 86
0.356609 0.336232 9.844483 25 3 86
0.306149 -0.191822 9.584032 6 104 59
0.344852 -0.158389 9.688633 38 5 80
0.344851 -0.158389 9.688633 38 5 80
0.530160 0.315734 10.263394 19 125 88
0.518475 0.401078 10.209602 29 10 97
0.591359 0.321121 10.259016 23 2 88
0.591359 0.321121 10.259016 23 2 88
0.578660 0.551677 10.107188 1 0 0
0.417058 -0.670593 9.564762 73 45 20
0.633802 0.299466 10.238159 63 41 14
0.458247 -0.168501 9.657044 24 123 86
0.456708 -0.095264 9.624237 38 7 88
0.651347 0.340370 10.252957 29 17 1
0.625375 0.438283 10.140779 110 99 78
0.460638 -0.210079 9.587562 103 75 33
0.658251 0.277993 10.230113 0 109 79
0.686534 0.371486 10.262626 29 21 9
0.476885 -0.646596 9.539172 8 106 73
0.507796 -0.025257 9.604884 5 1 0
0.544054 0.087039 9.620802 5 3 1
0.741878 0.465300 10.206087 111 98 69
0.540869 -0.822888 9.572918 101 74 44
0.574092 -0.242253 9.645635 93 66 34
0.553308 -0.625698 9.515281 90 67 44
0.771390 0.442476 10.212130 19 10 0
0.641393 -0.265200 9.637966 58 36 11
0.644583 -0.309314 9.617829 49 29 7
0.668099 -0.026845 9.655473 103 82 56
0.629352 -0.341612 9.541327 42 12 97
0.857719 0.231720 10.267101 23 6 96
0.689852 -0.324161 9.651705 57 37 8
0.710694 -0.185154 9.657203 42 12 91
0.735474 -0.044822 9.700211 47 19 102
0.658311 -0.898911 9.460796 54 24 110
0.904128 0.246331 10.272405 104 85 55
0.598438 -0.500984 9.071610 47 30 6
0.768061 0.193226 9.668027 15 120 80
0.737418 -0.538876 9.605427 45 28 4
0.764647 -0.118766 9.640139 114 86 43
0.780230 0.084109 9.658163 23 125 83
1.034824 0.460921 10.180551 59 37 4
1.044804 0.441194 10.159785 41 15 95
1.059586 0.358662 10.168431 34 7 92
1.080746 0.389037 10.117323 43 23 2
0.926504 -0.699928 9.557245 5 102 63
1.084908 0.441138 10.095344 44 25 3
0.939263 -0.630191 9.517529 37 11 104
1.115353 0.439406 10.127414 32 14 0
1.129336 0.294649 10.164072 49 37 25
0.984481 -0.506262 9.491483 101 82 59
1.172531 0.447602 10.117065 124 106 68
1.206960 0.298121 10.124316 8 114 79
1.195796 0.426490 10.019587 61 44 21
1.039924 -0.582263 9.418861 17 120 86
1.143876 0.120335 9.645842 28 126 80
1.143876 0.120335 9.645842 28 126 80
1.239661 0.312066 10.057036 27 6 96
1.258993 0.226731 10.041351 36 13 98
1.164616 0.038938 9.612962 83 61 31
1.130379 -0.566741 9.369854 9 4 3
1.205865 0.141579 9.612861 88 62 26
1.303153 0.224898 10.032626 32 12 100
1.315665 0.461549 10.073790 70 50 16
1.198695 -0.184470 9.565382 115 87 51
1.205293 -0.463960 9.533544 119 88 48
1.201177 -0.490075 9.511548 114 81 45
1.349254 0.478452 10.075741 124 106 68
1.391967 0.454229 10.087391 33 22 3
1.268908 -0.339628 9.562541 121 93 54
1.237193 -0.429088 9.396125 20 7 0
1.397433 0.280852 10.104282 52 35 14
1.431075 0.491705 10.097046 11 125 89
1.431075 0.491705 10.097046 11 125 89
1.435212 0.460955 10.101036 12 124 82
1.438722 0.426667 10.113020 20 3 83
1.298465 -0.390478 9.407785 19 7 0
1.523845 0.453513 9.989959 34 9 85
1.459827 0.082812 9.528697 120 91 50
1.573747 0.459157 10.062682 33 11 92
1.611819 0.496607 9.960176 65 46 13
1.608674 0.340438 9.935784 35 10 89
1.544699 0.148415 9.476424 59 37 11
1.622815 0.596667 9.819090 49 34 9
1.670523 0.362111 9.971614 114 92 54
1.557552 -0.286845 9.385074 20 9 1
1.669962 0.291661 9.964631 113 89 46
1.572797 -0.251613 9.412104 47 20 108
1.577544 -0.181542 9.429040 52 24 108
1.623612 0.168307 9.506730 30 1 82
1.692034 0.256545 9.749497 126 99 57
1.720741 0.640541 9.743291 30 7 76
1.746093 0.229365 9.649620 36 10 95
1.770829 0.451326 9.684139 33 10 97
-0.817255 -0.038083 10.496387 28 16 9
-0.598614 -0.295615 10.142248 32 14 0
-0.629031 -0.140990 10.074054 101 71 44
1.325988 -0.328661 9.347198 9 2 1
-0.853773 -0.163735 10.310755 22 124 89
-0.605626 -0.024738 10.428686 116 84 48
-0.519729 -0.001988 10.373417 18 117 84
-0.458036 -0.219891 10.094386 84 53 17
-0.264965 0.295715 10.382400 12 119 83
-0.326840 0.668373 10.002579 4 2 1
-0.397043 -0.623481 9.704642 42 10 92
-0.225312 -0.063596 9.709113 121 86 45
-0.198717 -0.798433 9.746334 49 17 103
-0.198716 -0.798433 9.746334 49 17 103
0.456857 -0.219080 9.671497 37 7 92
0.830089 0.277828 10.271243 82 62 26
0.830089 0.277828 10.271243 82 62 26
0.729730 -0.590004 9.585665 31 16 1
0.866336 0.330921 10.033132 29 10 96
0.748557 -0.516045 9.599542 18 119 84
0.966770 -0.105748 9.633709 82 56 23
1.200230 0.230456 10.081037 49 25 106
1.246560 0.510346 10.037618 7 3 0
1.208031 0.076860 9.598752 109 82 41
1.355594 0.532366 10.031663 19 11 0
1.355595 0.532366 10.031663 19 11 0
1.753338 0.583036 9.685813 23 1 91
1.810757 0.451618 9.591586 8 1 0
-0.275393 -1.319597 12.673188 59 47 42
-0.665266 -1.021591 11.126655 65 53 48
-0.788402 0.630700 10.640231 45 31 15
-0.846436 -0.025449 10.428700 28 16 9
-0.852782 -0.078961 10.321614 19 120 84
-0.799249 0.507217 10.437083 115 94 57
-0.759307 0.753725 10.466486 96 69 17
-0.935155 -0.595538 10.040070 29 16 8
-0.668541 0.652670 10.595347 1 105 62
-0.776211 -0.027222 10.311285 104 75 44
-0.908636 -0.606844 9.986803 31 2 94
-0.877951 0.884185 9.992961 54 42 35
-0.692906 0.686060 10.337059 117 93 43
-0.542086 0.543872 10.585196 0 101 60
-0.616088 -0.020681 10.407684 112 82 46
-0.640162 -0.010271 10.352754 112 82 46
-0.560065 0.018622 10.491063 37 12 96
-0.770701 -0.623888 9.983744 34 127 87
-0.630937 -0.475887 10.260056 110 83 52
-0.668672 -0.557252 10.170878 47 16 103
-0.511706 0.505525 10.476814 58 35 124
-0.494724 0.331949 10.507408 63 46 28
-0.690958 -0.590265 10.037280 100 72 45
-0.477693 0.140347 10.508407 97 73 44
-0.503019 0.470813 10.450107 125 100 63
-0.503019 0.470813 10.450107 125 100 63
-0.620484 -0.289236 10.102705 29 12 0
-1.381467 0.261397 8.259974 126 95 59
-0.616923 -0.648463 10.058302 123 89 57
-0.748518 -0.674532 9.713733 125 95 59
-0.616492 -0.226769 10.031284 16 112 75
-0.432886 0.328501 10.459884 24 3 98
-0.466618 0.002768 10.355686 32 3 91
-0.440949 0.206748 10.395488 67 47 22
-0.460941 0.183210 10.247876 8 108 72
-0.575090 0.639765 9.981358 42 35 26
-0.513446 -0.564673 10.081974 51 21 107
-0.508686 -0.566661 10.072338 49 21 107
-0.447525 0.116439 10.189043 89 62 19
-0.490697 0.190932 10.080117 28 4 100
-0.577730 -0.901178 9.709129 36 8 98
-0.513994 -0.200896 9.858549 125 93 60
-0.525375 -0.444790 9.823439 23 6 107
-0.596324 0.278271 9.618823 111 86 47
-0.534534 -0.469264 9.711739 33 24 19
-0.489234 0.033667 9.700610 11 5 2
-0.334978 0.096224 9.783550 6 4 2
-0.094228 0.350257 10.339054 41 27 4
-0.094228 0.350257 10.339054 41 27 4
-0.316677 -0.061644 9.739378 49 12 91
-0.097489 0.245652 10.292930 110 83 46
-0.247628 -0.151954 9.786674 27 121 70
-0.236589 -0.231014 9.785249 19 109 63
-0.239028 -0.255457 9.753026 80 50 13
-0.005753 0.265493 10.354540 32 13 101
-0.229756 -0.062207 9.701619 17 112 73
-0.162623 0.225596 9.775030 10 6 3
-0.164761 0.268286 9.701435 23 0 90
-0.120732 0.286389 9.788880 63 38 6
-0.140408 -0.795239 9.729143 73 50 21
-0.109796 0.268266 9.734259 70 42 3
-0.118881 -0.667314 9.691596 30 125 83
0.135073 0.258702 10.322984 22 2 93
-0.076744 -0.659835 9.670749 28 123 77
-0.064509 -0.840635 9.678745 22 118 79
-0.024661 -0.801449 9.702233 25 123 85
-0.006615 -0.186590 9.664994 29 6 92
0.131754 -0.085787 9.660588 23 119 65
0.156526 -0.661497 9.605568 100 73 39
0.156526 -0.661497 9.605568 100 73 39
0.234864 0.287959 9.732412 83 52 8
0.296921 -0.765364 9.553121 33 126 82
0.348548 -0.782844 9.620855 127 97 58
0.405812 0.293690 9.690140 90 57 8
0.421071 0.270817 9.632882 44 11 84
0.609371 0.449005 10.165504 12 1 0
0.642616 0.261667 10.227634 75 51 21
0.475253 -0.214947 9.633252 110 82 39
0.495538 -0.261879 9.615848 28 122 76
0.518985 0.298200 9.669801 100 66 20
0.531923 0.266235 9.619917 31 6 90
0.541501 0.084412 9.641451 4 3 1
0.524957 -0.662279 9.556386 58 38 12
0.776724 0.382875 10.275596 115 96 61
0.775940 0.279654 10.255263 22 1 87
0.776791 0.210720 10.246121 65 45 15
0.809874 0.225944 10.279541 28 4 90
0.809874 0.225944 10.279541 28 4 90
0.803546 0.293257 10.252254 27 8 96
0.594788 -0.597457 9.490293 91 73 51
0.760511 0.230010 10.039935 32 10 98
0.645126 0.195541 9.603823 14 11 5
0.812999 0.443852 10.214298 61 47 17
0.849874 0.209880 10.304481 105 81 40
0.685003 -0.288534 9.681152 17 120 78
0.649246 -0.908189 9.575373 103 79 45
0.691106 0.223825 9.650927 18 122 84
0.689465 -0.647402 9.637009 34 3 87
0.854372 0.469766 10.205809 6 2 2
0.677595 0.176198 9.533950 15 6 1
0.733606 0.240101 9.703344 87 58 21
0.705821 -0.753083 9.533211 114 87 58
0.910390 0.217570 10.250985 50 32 114
0.910390 0.217570 10.250985 50 32 114
0.915980 0.423051 10.253859 5 116 72
0.945398 0.486731 10.306041 4 2 0
0.772933 -0.669010 9.586995 33 0 85
0.948930 0.497972 10.145351 5 2 0
0.958758 0.208042 9.991625 119 94 59
1.023816 0.500657 10.153971 10 1 0
1.038044 0.458466 10.193657 67 45 9
1.055630 0.470384 10.201247 127 110 86
1.055630 0.470384 10.201247 127 110 86
0.867019 -0.694377 9.375688 23 121 79
0.867019 -0.694377 9.375689 23 121 79
0.984845 0.236343 9.696659 86 62 33
0.974646 0.191216 9.630171 101 75 36
0.974645 0.191216 9.630171 101 75 36
0.977763 -0.504210 9.463702 104 84 58
0.977763 -0.504210 9.463702 104 84 58
1.234707 0.654900 10.220888 2 1 1
1.209177 0.296202 10.135836 10 115 81
1.055740 -0.562810 9.485187 100 68 36
1.138117 0.123557 9.623237 27 125 78
1.203808 0.593142 9.882092 4 2 0
1.074856 -0.573394 9.383531 25 0 98
1.152198 0.201695 9.613922 93 64 31
1.261312 0.500129 10.077730 10 5 0
1.261146 0.452835 10.065694 6 113 69
1.189701 -0.156626 9.583867 40 11 99
1.204626 -0.271197 9.578884 93 67 33
1.202844 -0.463015 9.521349 116 84 44
1.183604 -0.515981 9.423301 50 15 92
1.237953 -0.448879 9.604756 46 19 109
1.215748 -0.506321 9.376013 22 8 0
1.267374 -0.339104 9.556954 122 93 54
1.370403 0.583384 9.965576 2 112 78
1.245929 -0.374097 9.387470 57 21 94
1.442095 0.234252 10.126224 39 17 98
1.290299 -0.364539 9.427423 32 6 105
1.292932 -0.388158 9.405293 23 7 0
1.358408 0.145644 9.612411 99 72 36
1.379629 0.820041 9.228688 3 1 0
1.429457 0.773883 9.306460 95 88 61
1.489215 0.207867 9.632813 104 80 50
1.593045 0.358934 9.824971 32 9 88
1.668096 0.321761 9.958375 118 94 54
1.660132 0.666620 9.746987 32 22 6
1.722265 0.747535 9.660443 5 117 105
1.696949 0.192856 9.548013 11 4 1
1.720921 0.124344 9.544530 3 2 2
1.810875 0.452207 9.588793 7 1 0
-0.793282 0.631400 10.569609 108 89 57
-0.718841 -0.276870 10.421299 119 94 60
-0.498921 0.182905 10.488196 120 94 57
-0.580820 -0.855800 9.878193 116 82 48
-0.500674 -0.706869 9.811675 116 85 48
-0.498137 -0.620527 9.684346 37 8 99
-0.438380 -0.672453 9.773920 67 42 14
-0.370006 -0.310585 9.626786 11 2 1
-0.269373 -0.223363 9.804317 122 89 47
-0.095680 -0.256760 9.712201 67 39 6
0.218609 0.260642 10.304499 21 0 88
0.637886 0.297530 10.249364 62 40 12
0.631348 -0.219109 9.670742 10 114 80
0.937756 -0.719184 9.387080 16 5 0
1.298555 0.489287 10.069135 113 95 63
1.538605 0.504013 10.036461 30 19 6
-0.896808 -0.070260 10.450892 24 16 14
-0.591430 0.086131 10.512397 94 73 43
-0.516938 0.242788 10.367137 24 0 87
-0.093684 -0.279440 11.292673 116 84 48
-0.465470 0.159653 10.257155 62 35 125
-0.568442 -0.606797 9.945438 98 68 40
-0.505473 -0.409325 10.027590 8 107 75
-0.492429 -0.183873 9.845671 110 78 44
-0.450593 -0.278666 9.771918 123 86 44
-0.364827 -0.873656 9.663020 44 3 82
-0.313336 0.278697 9.807997 2 95 48
-0.313336 0.278697 9.807997 2 95 48
-0.296673 -0.267394 9.781478 47 12 94
-0.038443 0.259846 10.345454 39 15 103
0.073701 0.253104 10.332236 34 13 103
-0.105255 -0.800460 9.737090 34 6 96
-0.082566 0.254133 9.733607 22 127 91
0.064684 0.296523 9.769055 123 93 48
0.130334 0.274251 9.674917 39 8 78
0.183304 -0.764760 9.656798 38 5 85
0.189203 -0.275422 9.623642 11 103 47
0.231378 0.289785 9.723878 83 52 9
0.420781 0.305106 10.280673 28 6 91
0.410140 0.400927 10.225501 5 118 78
0.442228 0.284136 10.273990 91 67 33
0.415668 -0.729547 9.597899 125 93 53
0.450315 -0.619446 9.532524 6 2 0
0.707043 0.383651 10.260096 22 14 1
0.516245 -0.838837 9.555857 39 8 98
0.524549 -0.689366 9.569530 6 106 74
0.567372 0.297454 9.690547 21 123 84
0.539967 -0.823142 9.570154 101 76 43
0.809771 0.263812 10.265895 32 10 97
0.625721 0.224918 9.558601 4 115 87
0.818643 0.402763 10.247046 44 31 5
0.665362 0.223808 9.663282 52 32 4
0.732500 -0.538403 9.593911 46 26 3
0.735805 -0.492944 9.600557 50 32 8
0.772384 -0.720469 9.556139 94 65 32
1.052575 0.500799 10.067920 23 11 1
0.952282 0.225759 9.653002 20 118 78
1.064760 0.314645 10.095298 15 118 81
0.952177 -0.582179 9.568599 31 5 101
1.113841 0.441634 10.122228 37 23 4
1.124816 0.042425 9.624104 85 59 32
1.378338 0.267537 10.052660 29 14 0
1.378338 0.267537 10.052660 29 14 0
1.403374 0.301152 10.083746 95 80 55
1.438219 0.544992 10.021812 9 2 0
1.268676 -0.290006 9.063579 8 1 1
1.468568 -0.159008 9.421675 38 8 84
1.468568 -0.159008 9.421675 38 8 84
1.670333 0.594284 9.831218 25 5 82
-0.848627 -0.165170 10.321252 17 120 85
-0.533565 0.224745 9.738143 61 41 8
-0.365527 -0.872904 9.660195 46 6 89
0.731895 -0.250985 9.674128 42 11 92
0.768779 -0.120326 9.653544 114 84 43
0.737200 -0.800073 9.410833 7 2 2
1.122343 0.214519 10.107317 126 102 64
-0.122953 0.459532 10.248837 8 3 1
-0.147766 -0.261468 9.715518 95 65 37
-0.088392 0.278636 9.775819 43 14 98
0.605016 0.545744 10.233544 3 1 1
0.545358 0.325943 9.717556 41 10 83
1.124602 0.042467 9.623939 85 60 34
1.190199 0.059856 9.602282 27 126 84
-0.796239 0.016526 10.527755 29 5 95
-0.850702 0.002904 10.317544 18 120 85
-0.916972 -0.601488 10.100477 26 16 11
-0.694472 0.004610 10.535497 29 5 89
-0.672216 0.615358 10.547021 107 80 37
-0.643326 0.348180 10.519987 96 76 45
-0.671739 -0.577921 10.258721 52 22 106
-0.776186 -0.915767 9.943628 49 20 107
-0.636818 -0.008159 10.285547 29 1 88
-0.630258 -0.485225 10.236596 104 74 44
-0.706215 -0.615229 9.963855 18 114 76
-0.819397 -0.669118 9.505109 5 99 60
-0.455353 0.457705 10.482302 117 92 48
-0.624509 -0.897599 9.918692 40 9 105
-0.502506 -0.468807 10.219046 16 114 74
-0.424237 0.304556 10.447415 109 87 50
-0.583024 -0.588517 9.951195 21 119 83
-0.479673 -0.019285 10.274398 112 85 50
-0.452324 0.454520 10.375631 96 75 32
-0.547393 -0.578613 9.995819 123 94 59
-0.496827 -0.294680 10.115573 10 103 65
-0.551561 -0.587111 9.943938 36 5 93
-0.429074 0.230433 10.309139 86 59 31
-0.511085 -0.569258 9.977649 67 37 125
-0.364807 0.402808 10.372061 6 111 74
-0.524116 0.023989 9.890769 22 118 71
-0.422129 0.147412 10.109810 125 96 62
-0.514733 -0.857736 9.728576 6 98 58
-0.532343 0.225106 9.736940 67 46 15
-0.419362 -0.701214 9.777270 19 113 73
-0.387885 -0.149653 9.832336 62 30 108
-0.172336 0.335999 10.325395 3 109 74
-0.337225 -0.750647 9.778314 7 98 58
-0.348278 -0.310373 9.669340 12 6 1
-0.105687 0.432194 10.296497 9 3 0
-0.251956 -0.283447 9.719220 111 76 35
-0.034938 0.255467 10.357046 39 16 103
-0.214300 0.278038 9.795878 102 67 22
-0.217489 -0.853690 9.682493 2 97 59
-0.196248 -0.167230 9.796411 35 1 81
-0.206189 -0.839426 9.706197 49 15 105
-0.219435 -0.895729 9.603499 11 5 3
-0.217412 -0.314253 9.651431 10 4 3
-0.208505 0.281354 9.702266 40 4 76
-0.179092 -0.598436 9.673944 9 3 2
-0.193995 -0.581357 9.632826 8 2 2
-0.191532 0.260513 9.657717 11 4 2
-0.166624 -0.289386 9.665431 53 19 96
-0.166468 -0.870662 9.618098 45 11 89
-0.129965 0.327887 9.798698 48 17 96
-0.116762 -0.255785 9.724744 9 107 80
-0.102541 0.362875 9.804430 102 71 25
0.108415 0.314196 10.324649 13 120 80
-0.079248 -0.661592 9.677759 28 122 77
-0.064346 0.296413 9.784839 4 99 54
-0.043013 -0.822089 9.693582 86 58 33
-0.031991 -0.844223 9.676150 24 122 83
0.033691 0.312290 9.775692 120 91 52
0.292723 0.259454 10.295029 4 110 71
0.152416 0.247796 9.646613 12 7 1
0.214252 0.276902 9.703133 43 6 76
0.220150 0.271515 9.657597 46 11 81
0.306947 -0.766041 9.550964 27 123 83
0.532595 0.440099 10.188332 9 2 0
0.539325 0.428152 10.209185 12 2 0
0.386527 0.273745 9.651920 99 68 20
0.416801 -0.674256 9.583021 6 103 58
0.475041 0.281776 9.702754 34 0 72
0.441029 -0.849010 9.510656 9 102 52
0.639858 0.261576 10.223449 58 39 13
0.639858 0.261576 10.223449 58 39 13
0.649807 0.360318 10.242060 48 36 16
0.649807 0.360318 10.242060 48 36 16
0.504034 -0.092112 9.591042 17 113 65
0.687628 0.243029 10.210092 115 97 67
0.550065 0.325276 9.717704 39 8 83
0.541189 -0.215361 9.659887 39 7 92
0.536230 -0.267200 9.616712 28 124 83
0.554556 -0.160110 9.667880 43 16 103
0.582315 0.281861 9.647491 43 22 0
0.747741 0.459490 10.226975 104 93 69
0.757113 0.211032 10.254094 7 116 88
0.785850 0.268755 10.290505 23 2 86
0.783201 0.204082 10.261646 59 36 7
0.622784 0.274839 9.664105 94 77 54
0.616525 -0.871781 9.569675 56 34 12
0.637353 -0.092406 9.635431 55 32 6
0.650028 -0.880840 9.609552 8 110 77
0.673748 -0.029574 9.674079 102 87 65
0.653523 -0.908683 9.588389 97 73 41
0.842115 0.212870 10.277107 103 78 38
0.697896 0.228812 9.703508 32 8 97
0.733316 0.208452 9.687713 13 117 77
0.734873 0.245741 9.695399 76 49 16
0.733084 -0.333938 9.678692 40 13 99
0.714464 0.212865 9.580628 46 28 6
0.798287 0.238433 9.830904 126 106 69
0.728177 -0.723553 9.413549 55 16 97
0.936803 0.298639 10.239477 28 7 91
0.724769 -0.788133 9.380367 7 3 2
1.005351 0.405963 10.275416 12 122 77
0.850516 -0.516752 9.602666 24 124 79
1.041544 0.452218 10.125911 64 41 122
0.942937 -0.500397 9.448164 12 111 76
1.198298 0.218688 10.110020 43 20 99
1.078332 -0.533021 9.559449 41 16 103
1.229254 0.512048 10.094004 3 0 0
1.078365 -0.551504 9.402551 88 60 33
1.183639 0.240836 9.668327 32 6 97
1.278841 0.220108 9.905183 90 70 42
1.278841 0.220108 9.905183 90 70 42
1.278841 0.220108 9.905183 90 70 42
1.238423 0.251515 9.670815 103 84 61
1.213966 -0.443795 9.540263 57 28 110
1.268843 -0.341060 9.566597 119 92 54
1.371949 0.576906 9.982829 117 100 72
1.405894 0.272749 10.150092 49 33 9
1.194757 -0.335194 9.159888 42 13 98
1.340129 0.162154 9.832146 108 84 52
1.422700 0.307275 10.097178 84 70 40
1.314330 -0.265537 9.411987 102 71 37
1.468009 0.441880 10.098837 23 3 85
1.405420 0.118016 9.601252 47 20 101
1.465181 -0.316509 9.281528 5 2 0
1.626710 0.500413 9.935387 34 14 94
1.670413 0.288743 9.968750 120 93 51
1.674723 0.647213 9.795917 47 26 0
1.710236 0.744918 9.713254 9 0 0
1.724256 0.626083 9.772698 33 9 78
1.718802 0.655215 9.720531 32 8 77
1.741387 0.228342 9.701332 29 1 76
-0.089982 0.263164 10.362659 30 11 104
-0.280129 -0.281353 9.715851 104 68 32
0.010704 -0.807834 9.679581 109 77 42
0.660370 0.275118 10.241727 3 113 80
1.314084 0.372792 10.095281 92 72 35
1.267466 -0.338969 9.559239 121 92 53
-0.944316 -0.860380 10.015602 33 20 13
-0.847475 0.002053 10.327592 17 120 86
-0.839526 -0.501474 10.221086 28 127 86
-0.795772 0.699257 10.555210 112 94 63
-0.912814 -0.599846 9.977466 31 3 97
-0.734254 0.673244 10.463081 115 93 53
-0.734254 0.673244 10.463081 115 93 53
-0.797347 -0.573667 9.981610 87 60 34
-0.742553 -0.581740 10.062991 105 78 51
-0.639187 0.577232 10.504146 112 94 58
-0.649605 -0.572917 10.173636 47 14 103
-0.640437 -0.003283 10.276019 29 1 88
-0.636653 -0.038560 10.276543 30 2 91
-0.536674 -0.010220 10.443130 11 119 90
-0.561074 0.007669 10.371467 18 118 82
-0.533247 0.529000 10.490494 82 64 28
-0.535953 0.023653 10.380651 63 43 18
-0.660685 -0.575266 9.948806 122 98 71
-0.496530 0.338601 10.498505 94 74 48
-0.522008 -0.000280 10.368082 12 114 77
-0.629803 -0.906057 9.820895 40 9 98
-0.478688 0.568501 10.440804 52 44 36
-0.679437 0.321641 9.877027 12 112 75
-0.679437 0.321641 9.877027 12 112 75
-0.473147 0.196528 10.203500 36 8 99
-0.431913 0.487383 10.361301 66 58 46
-0.495276 0.203529 10.072582 59 35 127
-0.527270 -0.182599 9.922094 99 69 31
-0.555836 -0.873759 9.705563 51 15 99
-0.514108 -0.063241 9.816894 42 10 91
-0.507331 0.361080 9.829966 40 8 95
-0.421021 -0.793016 9.773315 75 50 22
-0.457498 -0.272483 9.759390 118 81 41
-0.502330 0.300506 9.673049 45 19 110
-0.386812 -0.280470 9.686125 29 121 78
-0.321821 0.289274 9.788554 2 93 44
-0.289294 -0.134040 9.807685 39 9 91
-0.287546 -0.850498 9.690633 9 100 60
-0.287546 -0.850498 9.690633 9 100 60
-0.279342 -0.105652 9.758902 29 127 83
-0.329473 0.288650 9.676152 29 2 88
-0.233189 -0.756279 9.752636 121 89 51
-0.212548 -0.730436 9.752523 53 18 103
-0.239805 -0.249748 9.744847 80 50 17
-0.155646 -0.760754 9.721898 27 122 76
-0.126956 -0.236314 9.731956 90 63 37
-0.131799 -0.271503 9.668610 92 59 28
-0.152856 0.278058 9.666704 25 4 100
-0.022512 -0.765120 9.708980 70 48 31
0.015932 -0.792463 9.690418 17 112 77
0.025791 -0.666737 9.660979 121 87 44
0.047959 0.285825 9.747062 53 19 94
0.127248 -0.647107 9.623437 34 0 87
0.136947 0.304073 9.742999 116 82 38
0.140105 -0.087603 9.686839 38 4 82
0.169657 -0.251134 9.659501 103 71 32
0.178002 0.278841 9.668261 115 80 32
0.186114 -0.268889 9.612265 112 78 31
0.216030 -0.733022 9.640962 80 54 28
0.208923 -0.259602 9.671977 45 11 96
0.313453 0.374005 9.716893 88 59 26
0.461570 0.372771 10.132806 9 112 69
0.406268 0.328834 9.724383 65 36 113
0.467422 -0.039558 9.583275 10 2 0
0.466427 -0.646611 9.528074 118 93 60
0.492514 -0.683350 9.566297 79 51 20
0.500621 -0.760056 9.583282 34 1 87
0.488601 0.109476 9.559679 3 0 0
0.527047 -0.848429 9.527186 97 70 40
0.578147 0.287604 9.636595 44 21 0
0.591999 0.327553 9.684501 54 28 3
0.553357 -0.901572 9.449343 33 3 89
0.570195 -0.041618 9.543536 106 83 57
0.608949 -0.291674 9.616828 120 93 61
0.618180 0.282521 9.649347 88 73 52
0.628216 0.290721 9.682434 93 75 53
0.628216 0.290721 9.682434 93 75 53
0.614742 -0.652506 9.570566 55 34 8
0.632905 -0.312707 9.584511 46 28 3
0.616059 -0.336079 9.510465 47 18 100
0.768651 0.234197 10.072482 26 5 88
0.669599 -0.324487 9.672274 67 51 34
0.820043 0.360475 10.266974 53 38 11
0.665204 -0.330256 9.577747 109 88 62
0.677425 -0.639516 9.596585 34 5 89
0.699125 0.256331 9.721172 25 2 94
0.679697 0.220989 9.609688 119 96 66
0.675829 -0.323156 9.480867 26 12 0
0.731213 -0.691784 9.600308 73 47 23
0.696941 -0.903157 9.397448 10 4 2
0.744901 -0.726014 9.575152 16 118 88
0.770168 0.171342 9.641799 17 118 81
0.776502 -0.722270 9.569094 89 61 34
0.966533 -0.492912 9.571060 69 48 25
1.107724 0.349467 10.148776 80 65 42
0.988757 -0.506828 9.497402 105 84 62
1.138701 0.222101 10.121033 59 42 14
1.042157 -0.555838 9.412248 75 49 26
1.209717 0.296412 10.133388 8 114 79
1.213656 0.481079 10.101393 9 3 0
1.215837 0.411591 10.082228 68 51 27
1.054126 -0.566229 9.346429 40 10 98
1.078476 -0.547889 9.393259 79 54 29
1.148622 -0.521525 9.515201 7 108 70
1.208435 0.263934 9.625691 49 30 7
1.130203 -0.489969 9.298021 58 26 105
1.315197 0.368894 10.100478 90 73 34
1.342615 0.355432 10.087735 16 124 86
1.256380 0.225477 9.631404 71 49 21
1.242614 -0.288613 9.098968 17 7 0
1.242614 -0.288613 9.098968 17 7 0
1.332254 -0.283484 9.356947 52 25 111
1.483817 0.168925 10.017364 121 101 63
1.378015 -0.268464 9.460606 106 81 47
1.314476 -0.251188 9.102657 20 122 80
1.437463 -0.252796 9.512420 53 23 101
1.534223 0.223880 9.883638 82 52 119
1.467844 -0.265894 9.465017 116 86 49
1.477250 -0.251100 9.464616 50 21 104
1.607602 0.331752 9.907351 47 21 93
1.505649 -0.281128 9.355042 45 14 95
1.526153 -0.259123 9.455514 54 25 103
1.552590 0.227804 9.512060 96 73 48
1.554458 -0.221723 9.436339 4 102 55
1.612749 0.185158 9.437784 31 0 81
1.683694 0.260054 9.742640 117 91 50
1.789676 0.368202 9.634668 31 8 97
-1.035188 -0.485481 9.292834 45 17 110
-0.893872 0.802648 9.470146 47 35 24
-0.191734 0.327735 9.628965 85 56 23
-0.183881 0.297414 9.644382 97 68 30
0.046425 0.260650 9.659229 35 1 83
0.214969 -0.736124 9.347899 125 98 56
0.709288 -0.673855 9.239044 102 73 40
-1.016609 -0.889858 9.469829 36 25 10
-0.974883 -0.910202 9.554718 117 99 75
-0.956065 -0.920349 9.663217 3 112 83
-0.935250 -0.933992 9.739939 1 109 81
-0.930890 -0.916511 9.561519 109 88 58
-0.836683 -0.755219 9.384140 108 82 55
-0.885419 -0.343482 9.371930 14 109 66
-0.885419 -0.343482 9.371930 14 109 66
-0.876035 -0.147986 9.405960 103 70 21
-0.750738 -0.779454 9.372227 63 33 117
-0.686017 -0.926814 9.636560 94 71 38
-0.809179 -0.280105 9.467823 88 52 4
-0.809179 -0.280105 9.467823 88 52 4
-0.866291 0.097763 9.421248 10 103 58
-0.682358 -0.827620 9.442085 63 46 37
-0.896767 0.493782 9.411172 115 82 25
-0.779586 0.016980 9.507783 55 22 107
-0.587938 -0.894895 9.550761 24 1 95
-0.860888 0.750222 9.511129 126 98 40
-0.624666 -0.581920 9.490410 37 5 90
-0.518367 -0.838483 9.529721 83 62 34
-0.769099 0.725364 9.535785 16 11 6
-0.485350 -0.882067 9.546159 59 40 16
-0.284665 -0.982377 9.691194 0 0 0
-0.298106 -0.299271 9.631396 31 126 78
-0.214586 -0.818266 9.436995 72 52 26
-0.252949 0.263900 9.704114 23 118 75
-0.073441 -0.809855 9.403792 82 60 33
-0.080832 -0.303075 9.580367 37 10 93
-0.016714 -0.274526 9.539793 56 34 11
0.094524 -0.870232 9.433793 14 125 91
-0.003810 0.243509 9.697572 109 76 31
0.095435 -0.180830 9.475358 80 48 4
0.128077 -0.288672 9.530793 65 41 14
0.076772 0.302569 9.591113 60 31 114
0.100969 0.274524 9.625869 94 64 25
0.192957 0.258753 9.638379 15 111 63
0.175463 0.513050 9.599356 5 2 0
0.381171 0.255057 9.609547 23 121 79
0.381171 0.255057 9.609547 23 121 79
0.479981 -0.841996 9.334580 46 32 11
0.500784 -0.852107 9.399577 4 109 70
0.480217 -0.302242 9.450709 109 88 58
0.530781 -0.830331 9.478159 4 1 0
0.486040 -0.280161 9.433167 37 21 7
0.562781 -0.923330 9.279814 56 42 20
0.483025 0.413014 9.526766 32 126 79
0.592024 -0.916005 9.311887 7 121 92
0.593453 -0.907003 9.242562 125 111 84
0.586927 -0.299573 9.330576 57 37 10
0.655483 -0.872657 9.367997 19 124 83
0.618805 -0.337155 9.373622 107 82 51
0.618805 -0.337155 9.373622 107 82 51
0.639810 -0.567898 9.249603 43 17 106
0.641790 -0.040526 9.383039 88 60 11
0.626607 0.290526 9.434132 77 54 22
0.704554 -0.731216 9.320944 47 19 107
0.725332 -0.729490 9.432419 79 58 32
0.818582 -0.150786 9.321789 105 76 38
0.862458 -0.719341 9.209690 72 51 18
0.862043 -0.078422 9.319936 119 91 51
0.852930 0.475498 9.415828 84 59 20
0.853737 0.494908 9.391286 13 6 0
0.877517 -0.583102 9.193492 41 18 108
0.926953 -0.490115 9.329360 109 82 48
1.060391 0.160267 9.344206 23 121 78
1.058642 -0.413138 9.204038 27 1 95
1.106320 0.439216 9.354421 111 81 41
1.106661 -0.483128 9.165826 14 123 92
1.164909 0.231314 9.281888 26 0 97
1.220543 0.727667 9.197598 1 0 0
1.229222 0.691963 9.207688 14 6 0
1.212517 -0.218426 8.964288 48 31 14
1.412783 -0.258104 9.178212 89 65 40
1.412783 -0.258104 9.178212 89 65 40
-0.852721 -0.910649 9.441683 90 68 36
0.050097 -0.783596 9.364088 54 28 113
0.963515 0.413341 9.425373 93 63 28
1.115044 -0.514995 9.296451 56 32 116
1.201780 -1.395750 7.967947 3 0 0
-1.216065 -0.182339 9.230072 25 16 13
-1.005962 -0.927147 9.492818 33 20 6
-0.925010 -0.952919 9.526929 101 79 48
-1.025901 -0.442874 9.272198 52 20 109
-0.970072 -0.626536 9.249921 7 108 74
-0.973234 -0.556966 9.257189 83 52 9
-1.000628 -0.378559 9.272833 60 26 109
-0.849038 -0.964484 9.523526 25 4 94
-1.017128 -0.205976 9.294739 71 36 125
-0.873133 -0.841972 9.279349 64 38 126
-0.858901 -0.879261 9.316166 40 17 112
-0.821703 -0.953649 9.599176 17 124 86
-0.979810 -0.264379 9.307868 82 48 6
-1.022652 -0.055275 9.335514 61 25 110
-0.827580 -0.867761 9.354468 87 64 46
-0.969063 -0.218998 9.291919 88 55 14
-1.017512 0.030713 9.330910 56 20 109
-1.026406 0.154933 9.360078 64 29 115
-1.028557 0.265813 9.369641 69 33 121
-0.857032 -0.556961 9.308882 78 48 5
-0.966004 0.176917 9.355033 97 58 11
-0.717773 -0.938273 9.487137 101 80 49
-0.958269 0.223529 9.361849 43 7 93
-0.977319 0.465143 9.382636 31 125 84
-0.844040 -0.149894 9.424674 42 10 101
-0.961532 0.497660 9.381853 117 81 35
-0.698687 -0.705272 9.455560 109 81 57
-0.662445 -0.652000 10.206144 15 11 7
-0.656370 -0.684362 10.172896 16 10 7
-0.782869 -0.251301 9.460620 17 111 70
-0.768828 -0.312370 9.445626 102 64 19
-0.890622 0.331923 9.438208 48 10 94
-0.609923 -0.951608 9.715100 25 2 91
-0.748569 -0.309484 9.468051 92 58 14
-0.861225 0.306212 9.443997 110 75 32
-0.614542 -0.563146 10.184152 40 30 24
-0.834856 0.305961 9.458880 28 119 83
-0.732094 -0.160841 9.461772 103 66 26
-0.732094 -0.160841 9.461772 103 66 26
-0.616383 -0.752931 9.447202 12 110 71
-0.581809 -0.836643 9.497560 78 54 29
-0.843129 0.573776 9.464494 64 28 116
-0.537782 -0.946095 9.571148 39 11 96
-0.716214 -0.017485 9.501302 40 6 95
-0.714599 0.217581 9.522151 37 1 94
-0.609548 -0.294838 9.514725 99 66 23
-0.587049 -0.416466 9.521147 97 66 24
-0.733210 0.471306 9.539239 45 8 93
-0.610392 -0.162719 9.541934 104 68 21
-0.615056 -0.070366 9.553916 107 69 16
-0.615056 -0.070366 9.553916 107 69 16
-0.613656 0.138969 9.577236 106 68 16
-0.668695 0.491116 9.616479 41 7 99
-0.669879 0.548842 9.596611 104 75 44
-0.624711 0.292996 9.591813 95 57 11
-0.603852 0.266707 9.595667 11 107 69
-0.537619 -0.057203 9.600788 106 69 19
-0.599009 0.291925 9.588335 103 68 24
-0.457591 -0.277561 9.627120 83 54 16
-0.594129 0.560053 9.624300 119 87 42
-0.557499 0.452093 9.647374 89 64 35
-0.454743 0.306159 9.730205 105 68 29
-0.473252 0.397268 9.667932 51 28 12
-0.464099 0.499883 9.663527 8 1 0
-0.422210 0.459200 9.677268 116 85 52
-0.214250 -0.881702 9.494459 65 48 21
-0.337425 0.305235 9.706837 101 64 26
-0.323015 0.292425 9.731648 26 122 83
-0.323015 0.292425 9.731648 26 122 83
-0.164270 -0.891954 9.474588 27 10 102
-0.219825 -0.291213 9.610614 100 70 32
-0.325579 0.463109 9.666889 101 78 49
-0.178930 -0.289493 9.654879 6 101 53
-0.267516 0.398362 9.649210 52 31 12
-0.259078 0.323428 9.610491 75 51 31
-0.097909 0.331804 9.657131 35 2 82
-0.042589 0.301086 9.700651 26 118 72
0.115581 -0.863855 9.417398 62 48 22
0.115581 -0.863855 9.417398 62 48 22
0.129587 -0.870009 9.433484 20 126 87
0.080122 -0.187098 9.497602 97 68 36
0.159878 -0.874335 9.414437 5 114 76
0.117402 -0.221838 9.503759 60 37 13
0.201445 -0.280589 9.555218 30 2 82
0.201445 -0.280589 9.555218 30 2 82
0.149190 0.314060 9.675972 74 48 12
0.149190 0.314060 9.675972 74 48 12
0.389084 -0.809572 9.320487 117 96 65
0.412706 -0.859812 9.360369 50 35 12
0.406607 -0.276751 9.519430 42 14 99
0.393826 0.321461 9.637188 79 51 21
0.582996 -0.855946 9.202548 28 19 6
0.558179 0.518622 9.568396 47 19 107
0.584664 0.384017 9.509716 91 66 36
0.633519 -0.214614 9.340960 9 107 72
0.687852 -0.747435 9.337853 119 94 56
0.657569 0.584860 9.491938 10 4 0
0.710700 0.088834 9.445170 94 64 23
0.736786 -0.350759 9.343448 55 27 113
0.783666 -0.689778 9.250477 5 114 79
0.829426 -0.698478 9.418733 91 69 32
0.802990 -0.685260 9.234509 51 33 14
0.841841 -0.700546 9.269367 76 52 23
0.832804 -0.646557 9.210642 40 24 16
0.840438 -0.142777 9.357212 65 42 18
